8881 8769 8546 8654 9120 9235 9068 9041 9478 9422 8467 7578 7388 8162 9294 9393 9619 10318 10154 10859 11551 11079 10580 9261 10101 10984 11630 11879 11761 11906 12611 12939 12490 12171 12447 11893 12470 13677 12988 12572 12142 12467 12732 12486 12578 12690 12463 12086 11856 11049 10682 10600 9944 9504 8930 8553 8861 9274 9816 10003 10826 12017 12116 11722 11751 11532 11417 11400 11597 11774 11637 11282 10728 10337 10390 10518 10213 10187 9757 9721 9238 9035 9229 9875 9901 9796 10009 9291 10515 10879 10964 10997 11371 11377 11394 11410 11374 11243 11318 11246 11118 11020 10869 10830 10754 10695 10564 10610 10597 10180 10098 10567 10718 10810 10488 10541 10492 10505 10403 10403 10465 10469 10518 10636 10557 10508 10334 10183 10216 10269 9822 9901 9826 9773 9616 9373 9114 9179 8891 8832 9081 9107 8887 9124 9015 9261 9445 9776 9763 9832 10144 10036 10075 10003 9714 8874 9140 9087 9160 9061 8933 9196 9281 9553 9881 9675 9681 9803 9589 8792 8261 8113 7913 7818 7785 7782 7765 7762 7739 7736 7716 7706 7703 7703 7680 7677 7660 7647 7634 7634 7627 7618 7621 7611 7614 7604 7608 7604 7611 7618 7611 7611 7611 7618 7611 7614 7608 7608 7604 7598 7608 7618 7631 7644 7660 7680 7713 7759 7824 7906 8038 8169 8385 8786 9668 10662 11466 12496 11863 11469 11676 11479 11479 12637 12362 12480 12339 12224 12093 11017 11528 10328 10331 9826 9353 9048 8838 8645 8474 8372 8257 8166 8093 8015 7982 7949 7959 7965 8083 8129 8152 8188 8287 8369 8461 8451 8458 8638 8638 8667 8805 8897 9242 9389 9291 9419 9537 9757 10164 10170 10377 10314 10039 9901 10285 9937 10216 9924 9845 9698 9337 9160 9324 9091 8710 8845 8530 9012 8618 8313 8133 7729 7296 7027 6620 6712 6407 6289 6250 6227 6266 6069 6099 6013 6030 6059 6092 6030 5980 5895 5839 5777 5718 5770 5754 5600 5561 5452 5351 5285 5252 5278 5314 5511 5521 5495 5423 5380 5364 5334 5288 5275 5111 5134 5177 5239 5295 5334 5324 5370 5321 5259 5229 5187 5150 5131 5121 5114 5078 5059 5036 5045 5013 4967 4931 4901 4891 4885 4839 4770 4747 4760 4760 4786 4786 4786 4826 4819 4763 4760 4757 4688 4704 4681 4665 4645 4648 4625 4622 4589 4580 4563 4557 4527 4530 4537 4527 4547 4504 4478 4478 4465 4465 4445 4442 4438 4419 4416 4425 4429 4435 4429 4379 4366 4399 4422 4468 4432 4475 4501 4514 4488 4504 4491 4498 4475 4416 4412 4360 4373 4386 4363 4356 4294 4251 4271 4261 4235 4232 4215 4206 4192 4176 4166 4153 4146 4153 4166 4215 4202 4206 4196 4186 4183 4186 4173 4166 4183 4160 4137 4133 4140 4150 4173 4169 4173 4179 4179 4173 4169 4166 4160 4146 4153 4140 4133 4124 4097 4048 4019 3999 3982 3976 3973 3976 3953 3959 3940 3953 3940 3930 3930 3940 3927 3920 3920 3910 3917 3904 3894 3891 3877 3874 3871 3868 3861 3864 3858 3858 3851 3894 3910 3920 3897 3897 3874 3858 3841 3841 3841 3841 3841 3841 3841 3841 3845 3841 3841 3841 3743 3743 3763 3835 3766 3740 3723 3730 3717 3717 3710 3720 3750 3736 3756 3769 3766 3710 3740 3763 3759 3740 3733 3720 3684 3687 3684 3720 3704 3707 3704 3704 3694 3690 3681 3674 3707 3681 3671 3658 3677 3694 3635 3667 3713 3713 3667 3648 3648 3671 3645 3618 3622 3612 3585
9333 9202 9189 9153 9087 9274 9192 9340 9678 9645 8851 8231 7618 7949 8241 8451 9160 10013 10252 10931 11040 11614 10902 9868 9169 10797 10816 10954 11515 11663 11942 12352 12805 12805 12929 12175 12339 12716 13067 12480 12181 11778 11735 12526 11922 11751 12654 12227 11742 10987 10521 10236 9947 9425 9091 8549 9005 9343 9520 9822 10387 11115 11988 11528 11751 11604 11046 11341 11479 11715 11561 11423 11161 10587 10075 10118 10137 9753 9432 9524 9081 9143 9872 9822 9901 10223 10456 9573 9996 11148 11240 11250 11614 11653 11627 11440 11466 11351 11466 11332 11010 11066 10997 10908 10813 10728 10718 10672 10603 9970 10396 10528 10515 10593 10377 10377 10341 10341 10295 10232 10331 10360 10334 10439 10597 10708 10698 10472 9960 10068 10127 10075 9839 9803 9520 9314 9163 9055 8792 8825 9124 9068 9094 9107 8953 9330 9258 9688 9685 9776 9753 10019 9757 9895 9540 9183 9327 9235 9645 9609 9078 9176 9570 9868 9658 10016 9534 9284 9009 8713 8645 8572 8087 7883 7936 7995 8123 8730 8320 7982 7719 7703 7706 7683 7670 7670 7660 7654 7644 7644 7641 7627 7618 7611 7608 7611 7608 7608 7608 7604 7601 7601 7604 7604 7598 7604 7604 7601 7598 7598 7604 7608 7621 7631 7650 7664 7687 7732 7782 7877 7956 8061 8208 8497 9196 9501 10702 11702 11233 10849 10836 10508 11975 12214 11725 11870 12063 12362 11509 12253 11873 10830 10567 10226 9701 9265 9058 8730 8585 8461 8326 8218 8123 8061 8005 7979 7962 7988 7995 8083 8215 8251 8254 8349 8369 8448 8480 8530 8638 8707 8818 8923 9133 9153 9445 9268 9409 9724 9908 10351 10498 10501 10442 10265 10347 10252 10715 10400 9806 9425 9173 9212 9084 8937 9114 8851 9074 9084 8372 8471 8251 7696 7178 7020 6660 6633 6404 6509 6663 6656 6197 6135 6125 6013 5948 5961 5984 6053 5984 5882 5839 5770 5695 5656 5613 5639 5492 5406 5364 5301 5314 5387 5406 5597 5524 5475 5465 5429 5413 5360 5334 5154 5104 5164 5272 5219 5272 5396 5436 5436 5328 5314 5259 5203 5183 5183 5167 5147 5108 5095 5088 5026 4996 4980 4947 4908 4872 4845 4803 4773 4790 4773 4773 4816 4806 4809 4845 4803 4809 4799 4757 4685 4750 4730 4694 4678 4648 4655 4625 4606 4583 4570 4557 4547 4527 4547 4563 4560 4527 4494 4491 4475 4465 4468 4465 4461 4468 4455 4452 4448 4458 4419 4360 4389 4422 4484 4511 4465 4517 4557 4553 4491 4494 4527 4481 4484 4471 4412 4393 4432 4419 4353 4320 4281 4268 4307 4324 4268 4261 4238 4222 4209 4199 4179 4163 4143 4150 4143 4166 4192 4202 4199 4192 4189 4183 4166 4166 4169 4140 4133 4146 4166 4179 4179 4192 4186 4183 4173 4160 4150 4143 4150 4140 4133 4101 4120 4071 4041 4019 3979 3973 3973 3969 3959 3963 3956 3946 3953 3946 3940 3937 3937 3927 3923 3917 3917 3907 3907 3907 3891 3874 3884 3884 3868 3868 3861 3864 3858 3877 3894 3943 3956 3959 3973 3933 3897 3884 3891 3841 3841 3841 3841 3841 3841 3841 3841 3841 3841 3841 3818 3799 3763 3828 3812 3789 3769 3753 3746 3733 3766 3776 3779 3792 3786 3802 3779 3763 3772 3792 3799 3772 3795 3753 3717 3687 3697 3743 3736 3740 3723 3733 3710 3707 3684 3667 3723 3690 3677 3677 3671 3654 3645 3710 3733 3723 3690 3674 3674 3671 3651 3631 3612 3612 3631
9373 9573 9612 9642 9438 9530 9488 9704 9872 9675 9225 8520 7949 7946 8234 9478 9461 9383 9488 10141 11200 12119 11292 9665 10239 9212 10774 11482 11709 12559 12565 12962 13054 12631 12342 12769 12559 12185 12457 12467 12601 12112 11210 11614 11076 11801 12434 12631 11948 11505 11099 10738 10118 9973 9212 8579 9455 9642 10009 10439 10531 11266 11847 11581 11400 11558 10908 11266 10941 11437 11548 11135 10836 10639 10164 9822 9783 9658 9288 9133 9173 9189 9868 9839 10160 10495 10675 10045 9576 10501 11686 11578 11971 11971 12024 11942 11673 11558 11624 11433 11292 11167 10974 10823 10889 10882 10705 10682 10127 10518 10400 10551 10459 10334 10314 10360 10423 10465 10285 10196 10101 10134 10196 10278 10275 10387 10616 10380 10039 9688 9829 9432 9501 9140 9127 8923 9097 9379 9107 9169 9192 9058 9041 9301 9225 9396 9429 9537 9593 9740 9809 10104 10337 9573 9153 9353 9737 9603 9721 9652 9215 9278 9698 9658 9940 9320 8910 8792 8661 8507 8428 8362 8418 8438 8740 8572 8418 8172 7965 7844 7831 7703 7693 7683 7670 7664 7654 7654 7641 7627 7627 7618 7611 7611 7608 7608 7598 7608 7601 7604 7601 7601 7604 7601 7598 7601 7598 7601 7595 7588 7598 7604 7611 7621 7637 7654 7664 7696 7736 7795 7854 7906 8031 8339 9333 9881 10321 10518 10931 10160 10042 11040 12034 12673 11633 11535 12847 12145 12500 12129 11279 11322 10505 10242 9908 9586 9104 8907 8743 8569 8412 8257 8166 8097 8041 8005 7998 8011 8028 8028 8116 8169 8261 8336 8428 8585 8651 8746 8684 8733 8809 8979 8992 9094 9212 9278 9419 9570 9885 10114 10111 10341 10610 10547 10508 10574 10390 10095 9812 9570 9550 9547 9343 9202 8989 8982 8756 8694 8487 7782 7434 7362 7001 7083 6768 6564 6528 6712 7194 6574 6404 6302 6177 6043 5958 6053 6013 6000 5931 5830 5826 5761 5675 5610 5564 5462 5465 5370 5354 5387 5439 5442 5505 5639 5610 5501 5531 5482 5377 5249 5150 5180 5154 5144 5344 5278 5318 5413 5505 5403 5419 5357 5291 5242 5216 5216 5200 5164 5167 5170 5141 5065 5000 4954 4914 4921 4881 4835 4790 4809 4806 4819 4803 4816 4845 4829 4855 4849 4852 4832 4760 4708 4776 4757 4727 4698 4671 4658 4642 4609 4606 4576 4576 4557 4540 4557 4580 4566 4550 4537 4498 4494 4501 4478 4498 4484 4494 4475 4458 4448 4425 4399 4366 4416 4435 4491 4570 4560 4570 4547 4511 4507 4517 4553 4527 4504 4471 4465 4442 4452 4396 4347 4297 4278 4291 4343 4340 4288 4281 4251 4242 4215 4202 4192 4176 4153 4156 4133 4133 4150 4189 4192 4206 4183 4186 4166 4179 4153 4143 4163 4166 4176 4212 4219 4229 4212 4183 4166 4146 4117 4117 4133 4143 4153 4110 4055 4032 4009 3979 3976 3973 3973 3979 3966 3963 3986 3963 3953 3946 3933 3943 3937 3927 3927 3927 3910 3907 3900 3897 3887 3887 3881 3887 3881 3874 3881 3887 3897 3920 3946 3986 3989 4009 3992 3953 3907 3874 3861 3841 3841 3877 3871 3841 3841 3841 3841 3841 3841 3841 3835 3782 3815 3838 3845 3828 3818 3792 3759 3736 3795 3832 3809 3818 3825 3822 3789 3795 3789 3832 3818 3789 3805 3753 3713 3717 3710 3769 3782 3802 3769 3753 3727 3710 3707 3664 3730 3700 3690 3674 3651 3651 3687 3753 3759 3733 3707 3694 3677 3681 3658 3638 3618 3677 3700
9573 9914 10426 10124 9862 9862 9839 10032 10314 10036 9665 9278 8169 7601 8756 10236 10298 10754 10226 10298 11227 11932 11755 10439 10774 10383 9842 10003 12011 11765 12093 12742 12109 12362 11912 12969 12677 12230 11870 12185 12427 11765 11233 10846 11115 12050 11479 12267 11791 11660 11108 10623 10121 9534 8946 8717 9507 10104 10462 11318 11095 11587 11971 11827 11184 10889 10738 10728 10790 11181 11358 10948 10416 10232 9931 9488 9514 9524 9314 9327 9540 9219 9885 10177 10528 10662 10597 10111 9583 10606 11660 12103 12267 12473 12509 12470 11975 11853 11909 11784 11236 11131 10912 11059 11043 10807 10761 10731 10095 10620 10541 10469 10377 10232 10383 10209 10193 10200 10357 10187 10341 10016 10055 10164 10259 10288 10547 10662 10078 9475 9452 9261 9370 9537 9297 9580 9340 9622 9251 9206 9091 9094 9196 9333 9370 9412 9629 9622 9671 9780 9917 9717 9849 9311 9360 9396 10049 10042 9839 9694 9278 9563 9481 9921 9806 9038 8828 8713 8641 8523 8435 8359 8293 8172 8320 8208 8146 8064 7959 7795 7919 7706 7683 7680 7667 7657 7650 7644 7634 7627 7624 7618 7611 7614 7604 7604 7598 7598 7598 7598 7595 7601 7588 7601 7595 7595 7598 7591 7591 7588 7598 7601 7604 7611 7624 7634 7650 7660 7690 7726 7755 7808 7933 8106 8530 9412 9212 9327 9596 9445 10633 11217 11840 11817 10816 11597 12221 12247 12211 12119 11725 11059 11282 10731 10347 9865 9383 9137 8812 8585 8441 8320 8221 8146 8074 8044 8024 8028 8034 8044 8057 8211 8192 8307 8372 8477 8654 8723 8710 8740 8884 8861 8874 8927 9163 9169 9393 9560 9616 10049 10187 10610 10980 10967 10971 11151 10731 10203 10124 10022 9822 9445 9432 9488 9347 9035 8772 8966 8343 8015 7506 7795 7263 7280 6889 6660 6817 7224 7034 6617 6387 6469 6276 6115 6066 6056 6023 5879 5692 5803 5682 5748 5682 5623 5528 5515 5410 5400 5429 5554 5685 5639 5567 5531 5452 5479 5413 5298 5216 5190 5216 5252 5229 5164 5226 5308 5387 5534 5482 5498 5334 5305 5308 5318 5285 5295 5252 5242 5252 5216 5170 5098 5032 4973 4924 4858 4819 4803 4822 4832 4858 4872 4826 4822 4862 4842 4888 4875 4849 4799 4750 4757 4806 4773 4727 4721 4701 4685 4655 4625 4603 4596 4586 4583 4553 4599 4589 4576 4570 4547 4524 4537 4484 4507 4517 4507 4491 4468 4484 4475 4425 4402 4393 4425 4461 4507 4553 4606 4583 4570 4553 4553 4596 4580 4553 4534 4501 4498 4471 4442 4399 4333 4304 4304 4324 4353 4327 4327 4294 4278 4297 4248 4225 4192 4186 4163 4150 4146 4133 4124 4124 4173 4196 4179 4186 4179 4163 4153 4186 4189 4192 4232 4242 4258 4265 4229 4202 4169 4143 4110 4104 4107 4114 4068 4028 4019 4005 3992 3996 3982 3982 4002 4028 4022 4032 4009 4038 4051 4015 4035 3989 3956 3937 3923 3917 3907 3907 3900 3894 3891 3891 3884 3884 3884 3884 3881 3907 3910 3956 4009 3992 4058 4035 4005 3943 3917 3920 3861 3841 3871 3907 3874 3868 3877 3871 3864 3861 3871 3877 3854 3776 3812 3845 3871 3871 3838 3812 3763 3750 3779 3832 3838 3854 3848 3835 3815 3825 3828 3864 3838 3835 3786 3736 3717 3717 3740 3786 3812 3822 3799 3776 3743 3713 3710 3671 3743 3717 3697 3671 3667 3710 3736 3786 3759 3763 3730 3710 3697 3700 3684 3628 3654 3667 3730
9458 10104 10738 10439 10121 10190 10229 10531 11118 10252 9625 9114 9005 8162 8713 9452 10377 11108 11811 11210 11958 12024 11197 11961 10472 11515 11702 10328 11722 12568 12516 12555 12155 11673 11712 12148 12890 12585 11499 11791 12080 11676 11797 10839 10826 11584 10725 11594 11368 11587 11049 10531 9927 9301 8782 8894 9560 10223 10731 11161 11679 12060 12181 11850 11784 11076 10810 10590 10416 10734 10803 10557 10193 9812 9724 9790 9471 9524 9481 9507 10203 9291 9665 9895 10410 11017 11105 10895 9675 10252 11164 12191 12641 12539 13136 12667 12112 11883 12043 11998 11896 11341 11154 11158 10928 11072 10459 10380 10820 10718 10679 10472 10321 10278 10282 10239 10272 10282 10055 9990 10111 10180 9947 10009 10157 10282 10479 10173 9829 9284 9570 9547 9845 9648 9343 9511 9442 9724 9537 9435 9373 9389 9491 9570 9458 9524 9806 10183 9911 10088 10095 9711 9520 9625 9819 9721 10127 10334 9986 9799 9396 9514 9606 9793 9629 9206 9333 8923 8589 8484 8687 8484 8254 8123 8211 8267 8208 8100 7933 7821 7713 7670 7664 7667 7664 7654 7647 7634 7634 7627 7627 7621 7631 7611 7608 7604 7585 7598 7595 7591 7585 7588 7591 7595 7582 7591 7595 7585 7588 7585 7588 7595 7601 7611 7621 7627 7627 7657 7673 7706 7742 7772 7877 7979 8188 8408 8458 8933 9074 10259 10620 11286 10869 10554 10321 11282 11190 11729 12903 12158 11437 12431 11699 10964 10777 10003 9596 9245 8897 8694 8576 8402 8293 8192 8116 8080 8067 8051 8064 8057 8083 8110 8198 8257 8356 8599 8576 8608 8766 8779 8687 8766 8891 8923 9041 9140 9311 9603 9990 10570 10698 10816 10570 11112 11361 11210 10751 10449 10711 10367 9685 9747 9983 9819 9376 8937 8933 9179 8618 8503 8166 8087 7759 7283 6909 6755 7352 7129 6807 6496 6397 6486 6259 6095 6066 5948 5908 5784 5784 5744 5790 5725 5715 5616 5547 5501 5469 5462 5534 5606 5744 5718 5679 5656 5462 5393 5321 5236 5219 5285 5275 5446 5393 5213 5209 5314 5465 5570 5524 5377 5475 5429 5429 5288 5406 5301 5344 5318 5298 5278 5209 5137 5072 5019 4931 4875 4822 4862 4862 4862 4862 4901 4829 4849 4888 4862 4908 4872 4816 4773 4783 4796 4812 4763 4760 4747 4717 4711 4691 4655 4629 4609 4589 4580 4606 4616 4589 4596 4580 4550 4547 4527 4501 4537 4547 4524 4498 4488 4494 4481 4438 4425 4399 4399 4442 4517 4593 4619 4609 4616 4596 4593 4635 4580 4514 4491 4481 4461 4455 4402 4379 4324 4291 4330 4363 4393 4333 4337 4314 4314 4311 4301 4278 4235 4209 4196 4169 4153 4130 4124 4117 4114 4127 4176 4173 4156 4156 4183 4206 4235 4235 4238 4281 4304 4288 4222 4196 4156 4124 4120 4094 4058 4045 4025 4038 3999 4002 4005 3986 3982 4038 4048 4071 4068 4058 4035 4078 4091 4074 4061 4038 4035 3992 3969 3930 3914 3910 3904 3927 3900 3887 3884 3877 3894 3894 3904 3910 3937 3986 4022 4035 4025 4032 3982 3959 3943 3946 3881 3841 3858 3920 3907 3907 3920 3907 3897 3904 3900 3900 3822 3789 3835 3851 3891 3900 3877 3812 3779 3769 3792 3848 3861 3877 3854 3845 3835 3851 3868 3868 3861 3845 3799 3736 3730 3733 3759 3809 3832 3822 3789 3776 3743 3736 3720 3700 3763 3746 3710 3704 3674 3746 3772 3812 3795 3779 3750 3727 3707 3690 3645 3645 3671 3730 3733
9534 9757 10419 10833 10636 10406 10600 11105 11584 10557 10006 10029 9835 9025 7683 8520 9891 11463 11515 11886 12621 11971 11738 12296 11204 11906 12473 11266 11450 12470 12329 12460 11978 12194 11099 11870 12450 12276 11801 11427 12178 11263 11371 11043 10104 10990 10629 11489 10721 11017 10708 10583 9947 8841 8658 9324 10062 10692 10800 11318 11899 12765 12365 12080 11788 11174 10941 10698 10561 10436 10419 10239 9990 10114 10049 10055 9845 9767 9917 9898 10291 9379 10213 10111 10419 11151 11807 10905 10459 10111 10666 11066 11368 12125 12864 12696 12496 12312 12276 12181 11751 11548 11358 11030 11358 10790 10255 10843 11082 10980 10826 10797 10564 10360 10229 10104 9983 10111 10193 10160 9875 10324 10137 9901 10003 10160 10252 9481 9760 10167 10331 10259 10164 10042 9786 9343 9425 9734 9504 9465 9429 9675 10065 9576 9671 9812 10328 10193 10262 10288 10022 9799 9566 9606 9783 10016 10603 10885 10659 10252 9655 9671 9954 10039 9842 9340 9163 8815 8625 8448 8497 8605 8287 8156 8185 8067 7988 7969 7837 7791 7693 7660 7644 7654 7650 7647 7641 7634 7621 7627 7618 7614 7608 7604 7604 7598 7595 7588 7595 7588 7585 7588 7595 7588 7588 7591 7582 7588 7582 7585 7591 7591 7585 7598 7608 7611 7624 7641 7657 7680 7693 7729 7788 7854 7936 8054 8188 8359 9130 9655 9625 10787 9973 9553 9996 10734 11571 12175 12549 12339 12286 12598 11640 11364 10567 10108 9737 9566 9146 8900 8697 8523 8372 8238 8179 8136 8113 8087 8080 8106 8097 8113 8179 8234 8303 8398 8513 8612 8631 8750 8881 8930 8910 9051 9084 9117 9524 9704 10042 10370 10246 10498 10807 10971 11161 11099 10902 10764 10433 9855 10111 10183 10780 10830 9914 9429 9261 9580 9274 8359 8392 8303 7798 7296 7066 7004 7181 7027 6673 6450 6282 6253 6213 6089 6020 5971 5885 5849 5836 5774 5754 5715 5656 5626 5606 5583 5580 5564 5767 5728 5666 5534 5475 5452 5377 5337 5265 5242 5324 5341 5364 5505 5321 5269 5203 5301 5436 5606 5505 5410 5465 5472 5374 5328 5419 5360 5364 5239 5255 5305 5229 5206 5062 4944 4898 4839 4898 4911 4888 4891 4872 4914 4832 4891 4908 4904 4875 4822 4793 4790 4839 4849 4826 4812 4799 4757 4773 4724 4711 4698 4665 4635 4616 4603 4632 4635 4622 4593 4573 4576 4560 4524 4524 4573 4560 4537 4514 4504 4494 4481 4458 4438 4416 4402 4468 4514 4622 4632 4655 4678 4658 4655 4642 4593 4507 4461 4432 4419 4399 4379 4343 4307 4330 4386 4393 4409 4356 4360 4373 4327 4281 4265 4245 4242 4258 4202 4186 4160 4150 4143 4127 4110 4117 4107 4143 4150 4183 4186 4206 4238 4222 4248 4337 4330 4238 4189 4173 4150 4133 4094 4068 4028 4028 4032 4019 4015 4005 4005 4025 4025 4061 4087 4124 4114 4071 4064 4114 4124 4127 4120 4107 4084 4051 4035 4012 3976 3937 3920 3907 3897 3887 3897 3904 3900 3907 3920 3953 3979 4038 4068 4061 4038 4032 3996 3973 3943 3894 3841 3845 3858 3933 3930 3933 3963 3950 3937 3910 3910 3868 3795 3828 3871 3874 3904 3914 3841 3802 3759 3812 3815 3851 3884 3897 3894 3877 3854 3851 3904 3920 3881 3838 3789 3769 3740 3779 3799 3832 3868 3864 3822 3795 3750 3727 3710 3727 3776 3772 3730 3694 3681 3746 3789 3822 3845 3782 3746 3717 3694 3667 3671 3710 3717 3720 3802
9878 10216 10036 10833 11335 10915 11276 11594 12670 11446 10961 10751 10682 9586 8592 8848 9645 10488 11256 11824 12201 11794 12076 12135 11407 11778 13057 11916 11348 12821 12152 12125 11581 11368 10925 11453 12339 11991 12096 10872 11919 11476 10396 10757 9793 10308 10456 10334 10426 10544 10114 9858 9832 8694 8772 10062 10324 10439 10718 11138 11975 12591 12362 11909 11676 11459 10941 10636 10616 10334 10026 9891 10026 10367 10423 10150 10003 9757 10134 10347 10357 9763 9648 10108 10688 10803 11377 11230 10524 10016 10524 10764 11558 11643 13129 12729 13031 12837 11932 12083 11850 11545 11253 11220 10928 10734 10377 11364 11279 11161 11030 11125 11046 10734 10288 10190 9960 9783 9845 9947 9812 10157 10157 9730 9934 10062 9934 9603 10396 10688 10288 10177 9750 9563 9576 9393 9747 9622 9753 9812 10059 10154 10229 9773 10088 10118 10501 10377 10288 10223 10006 9842 9619 9776 9917 10157 10534 10731 10669 10518 9829 10075 10272 10574 10141 9402 9097 8910 8651 8500 8320 8261 8425 8143 8156 8385 8057 7939 7801 7719 7673 7647 7650 7634 7644 7637 7634 7624 7624 7624 7618 7621 7608 7611 7598 7598 7595 7588 7588 7595 7582 7582 7588 7578 7582 7575 7585 7588 7578 7585 7585 7585 7588 7591 7595 7604 7621 7637 7644 7660 7673 7687 7716 7772 7847 7933 8047 8162 8520 9002 9616 9393 9297 10377 10967 10810 10928 11617 12637 13123 11994 12198 12293 11246 10469 10636 10255 9898 9484 9071 8805 8645 8438 8307 8248 8195 8152 8110 8103 8123 8143 8110 8162 8202 8231 8382 8612 8589 8566 8684 8825 8904 9045 9156 9258 9311 9402 9566 9865 9980 10088 10393 10757 10744 10708 11092 10784 10249 10085 10511 10692 10830 11092 10757 10042 9950 9376 9652 9484 9091 9265 8822 7923 7657 7726 7237 7342 7034 6784 6469 6269 6292 6177 6095 6056 6003 5935 5859 5839 5833 5764 5711 5734 5807 5908 5741 5839 5813 5780 5761 5734 5524 5459 5396 5328 5282 5282 5341 5374 5462 5528 5396 5298 5301 5232 5291 5387 5649 5465 5419 5587 5436 5374 5406 5410 5347 5334 5193 5144 5108 5085 5075 4996 4934 4878 4842 4983 4954 4931 4917 4895 4875 4875 4904 4924 4954 4888 4852 4819 4822 4855 4878 4868 4832 4812 4783 4786 4770 4730 4711 4691 4658 4625 4606 4639 4645 4619 4599 4583 4570 4537 4560 4566 4576 4566 4557 4534 4517 4507 4491 4461 4438 4419 4429 4468 4534 4550 4593 4612 4622 4606 4599 4603 4557 4511 4461 4416 4399 4373 4360 4327 4333 4350 4432 4442 4416 4409 4409 4386 4311 4301 4304 4294 4274 4248 4242 4215 4186 4156 4150 4137 4120 4107 4110 4104 4117 4153 4156 4183 4209 4196 4229 4258 4258 4202 4163 4169 4114 4133 4071 4038 4035 4019 4019 4009 4012 4041 4035 4061 4032 4078 4130 4133 4137 4101 4078 4133 4146 4146 4133 4097 4058 4045 4041 4002 3976 3930 3927 3907 3900 3907 3917 3923 3927 3953 3950 3992 4009 4048 4078 4068 4035 4002 3986 3943 3871 3874 3917 3914 3910 3937 3950 3946 3992 3976 3956 3940 3900 3822 3828 3877 3858 3881 3914 3910 3818 3779 3779 3832 3822 3858 3874 3897 3891 3881 3868 3854 3874 3897 3877 3828 3815 3766 3733 3795 3822 3845 3871 3874 3841 3809 3766 3753 3713 3763 3779 3769 3746 3694 3704 3730 3776 3815 3812 3763 3733 3707 3684 3690 3694 3753 3766 3776 3746
10314 11574 11167 11046 12053 11932 11715 13185 12454 11686 10780 10262 9662 9019 7874 7949 8720 9202 10157 11984 12956 12460 12162 12273 11666 12155 12309 12155 11332 12270 12014 11440 10912 10797 10551 10472 11046 11318 11755 11112 11095 10416 9527 9435 9383 9307 9189 9498 9166 9442 9189 8959 8923 8710 9389 10187 9977 10137 10436 10895 11391 12621 12404 11919 11486 11099 10784 10515 10367 10482 9967 10439 10249 10718 10830 10291 10236 10209 10239 10488 10715 10180 10190 9645 10118 10469 10879 11689 10905 10866 10193 10925 11525 12116 12992 13487 13431 12424 11850 11850 11666 11601 11328 10849 10784 10508 10311 10964 11761 11666 11450 11610 11115 10777 10610 10442 10259 10009 9744 9717 9704 9580 9599 9596 9937 10062 9327 10085 10823 10675 10295 10026 10059 9875 9744 9596 9888 10200 10295 10288 10561 10587 10246 10098 10177 10603 10534 10337 10301 10288 10219 10006 9747 10423 10226 10082 10485 10623 10672 10403 9773 10433 10541 10816 10446 9599 9222 9140 8713 8599 8769 8713 8257 8100 7988 7965 8044 7851 7765 7706 7660 7647 7641 7627 7631 7641 7627 7621 7618 7618 7601 7601 7601 7608 7595 7598 7588 7585 7588 7585 7578 7582 7575 7582 7578 7578 7578 7575 7578 7575 7575 7585 7588 7588 7591 7608 7611 7624 7634 7641 7657 7677 7703 7716 7791 7860 7919 7995 8270 8953 9153 9130 9803 10879 11919 12099 11633 11535 11912 12532 12404 12020 11404 11437 11833 10646 10429 10003 9488 9281 9183 8861 8592 8421 8366 8264 8198 8152 8143 8159 8166 8169 8146 8221 8261 8290 8441 8540 8582 8585 8730 8884 9032 9110 9199 9379 9560 9524 9714 9911 9914 10111 10383 10436 10436 10761 10872 10561 10423 10695 11417 11197 11722 10770 10748 9963 9373 9363 9491 9160 9163 8894 8694 8356 7811 7627 7657 7125 6748 6400 6548 6374 6256 6190 6105 6033 5971 5935 5964 5846 5767 5820 5872 6003 5944 5889 5879 5803 5705 5554 5442 5393 5367 5331 5301 5341 5452 5410 5462 5620 5439 5367 5416 5351 5278 5295 5360 5406 5508 5472 5515 5456 5423 5459 5403 5314 5246 5173 5088 5052 4990 4973 4963 4904 4858 4914 5059 5013 4986 4950 4924 4914 4901 4898 4944 4963 4934 4868 4826 4849 4898 4891 4845 4816 4776 4763 4744 4724 4717 4688 4652 4635 4619 4652 4648 4635 4645 4616 4573 4557 4563 4599 4616 4603 4599 4570 4550 4520 4501 4484 4458 4445 4435 4422 4429 4491 4534 4583 4563 4557 4553 4543 4547 4520 4504 4484 4438 4402 4366 4343 4320 4360 4376 4419 4452 4438 4432 4396 4353 4383 4337 4353 4317 4281 4274 4242 4222 4209 4183 4156 4150 4127 4120 4117 4107 4094 4120 4143 4137 4179 4166 4176 4176 4199 4156 4110 4130 4127 4048 4038 4035 4015 4015 4025 4068 4074 4087 4048 4101 4078 4051 4114 4133 4156 4133 4097 4140 4179 4163 4130 4078 4032 4022 3992 3976 3946 3927 3914 3914 3920 3927 3943 3959 3989 3999 4002 4005 4051 4035 4041 4032 4015 3969 3943 3907 3858 3950 3946 3959 3937 3943 3963 3982 4009 3999 3950 3907 3871 3845 3874 3871 3874 3894 3897 3861 3832 3786 3809 3848 3851 3887 3897 3900 3900 3877 3871 3861 3868 3868 3851 3825 3792 3766 3776 3809 3848 3861 3868 3838 3812 3782 3769 3736 3772 3789 3772 3763 3743 3710 3723 3740 3782 3799 3795 3736 3717 3700 3713 3727 3700 3772 3805 3779 3750
10826 12339 11561 11778 11660 12237 12982 13248 12234 12165 10597 10180 9678 8169 8494 8251 8622 9343 11102 11971 12099 12814 12650 11870 12135 12677 12477 12224 11627 11935 11614 11053 11414 11597 11541 10813 10249 10718 11364 10643 9760 9977 10564 10597 10219 10764 10544 10000 9783 9717 9563 9714 9494 9127 8963 9491 9829 10216 10492 10990 11227 12257 12125 11581 11443 10925 10695 10426 10282 10738 10111 10741 10334 10892 10748 10403 10557 10725 10961 10915 11213 10459 10659 9842 10410 10757 11571 11893 11089 11243 10121 11194 11738 12372 12814 13477 12614 12595 12572 11899 11417 11076 11240 11200 11026 10892 10364 10603 11594 11801 11811 11807 11502 10997 10777 10423 10416 10036 9862 9901 9612 9734 9803 9629 9924 9498 9507 10177 10623 10748 10449 10269 10272 9914 9760 9668 9826 10104 10357 10213 10252 10137 9872 9878 10193 10915 10770 10364 10262 10269 10036 10052 10114 10508 10406 10403 10167 10265 10538 10272 10203 10045 10377 10669 10793 9990 9812 9268 9186 9041 9409 9074 8746 8254 8143 7988 7906 7824 7742 7693 7667 7647 7641 7621 7631 7624 7624 7618 7618 7614 7608 7604 7611 7598 7604 7591 7595 7588 7585 7578 7578 7578 7575 7568 7575 7578 7572 7575 7578 7572 7575 7582 7585 7582 7588 7591 7601 7614 7624 7634 7650 7670 7709 7713 7752 7788 7844 7969 8113 8618 8953 10085 10288 10774 11866 11614 11535 12106 12637 12217 12673 11610 11774 12352 11138 11007 10862 10360 10167 9911 9671 9288 8710 8536 8415 8297 8231 8195 8172 8202 8202 8208 8185 8192 8251 8320 8395 8497 8510 8690 8713 8812 8868 8871 8950 9288 9304 9530 9573 9921 9891 10219 10187 10022 10488 10836 10790 10761 11026 11046 11272 10912 11266 11499 10810 10006 9442 9051 9225 9078 9064 8914 8336 8287 8077 7811 7480 7470 7240 6886 6978 6496 6381 6230 6135 6066 6026 6062 5974 5941 5862 5875 6026 5974 5921 5793 5780 5613 5498 5501 5551 5515 5410 5347 5433 5465 5551 5528 5643 5479 5446 5488 5442 5357 5291 5337 5357 5469 5544 5528 5570 5531 5501 5456 5374 5282 5196 5150 5141 5072 5022 4977 4908 4885 4878 4977 5062 5052 5013 4990 4954 4940 4898 4921 4954 5000 4947 4875 4839 4881 4885 4885 4852 4822 4783 4753 4744 4717 4698 4662 4645 4645 4652 4678 4655 4652 4622 4599 4580 4580 4596 4625 4629 4619 4593 4570 4537 4514 4498 4484 4468 4458 4442 4432 4448 4488 4547 4543 4534 4524 4514 4517 4511 4491 4475 4442 4425 4396 4360 4343 4350 4379 4389 4438 4491 4481 4442 4409 4373 4386 4370 4363 4320 4314 4274 4255 4235 4258 4196 4179 4140 4130 4110 4130 4127 4097 4087 4107 4124 4150 4143 4130 4150 4150 4153 4110 4110 4038 4032 4025 4012 4022 4051 4025 4074 4101 4120 4097 4087 4133 4091 4101 4133 4173 4133 4143 4133 4173 4137 4097 4068 4015 4005 3976 3963 3950 3933 3910 3914 3930 3946 3953 3976 4009 4038 4032 4028 4064 4035 4012 3996 3979 3979 3953 3884 3910 3966 3982 3996 3940 3973 3976 3982 3996 3976 3940 3884 3828 3854 3904 3884 3874 3927 3917 3848 3841 3792 3848 3861 3864 3907 3930 3910 3900 3881 3874 3861 3838 3832 3822 3802 3772 3772 3805 3832 3864 3868 3848 3812 3786 3779 3759 3786 3799 3805 3779 3756 3733 3704 3766 3779 3818 3802 3779 3746 3736 3727 3756 3786 3759 3792 3799 3740 3717
11833 13047 12611 12158 12280 12355 12447 11774 10803 11227 11374 10075 8750 8992 9235 8753 9238 10675 11568 10820 12093 12283 12696 12408 12221 12480 12306 11886 12024 12178 11509 11955 12198 12457 12381 11519 10344 9730 9671 10059 10206 11148 11965 10810 11138 12109 10823 10734 9412 10597 10800 10229 10262 9786 8832 9025 9872 10597 10928 10994 11118 11771 12132 12027 11240 10853 10793 10603 10413 10718 10150 10790 10711 11069 10757 11007 10954 10816 11637 11564 11292 11095 10836 10085 10695 11410 11578 12191 11548 11358 10702 10738 11758 11515 12158 12831 13454 12565 11840 11978 12027 12096 11630 11492 11656 11243 11036 10567 10935 11594 11873 11899 11886 11601 10875 10754 10515 10272 10022 9708 10026 10029 9839 9629 9727 9376 10013 10249 10534 10954 10488 10383 10039 9947 9734 9888 9675 9734 9901 10301 10337 10072 10078 10203 10702 10561 10410 10328 10249 10154 9990 9895 10144 10347 10485 10200 10000 9993 10200 10580 10656 10410 10282 10390 10095 9803 9514 9642 9222 9537 9366 9442 8766 8244 8182 8044 7824 7798 7749 7706 7670 7657 7627 7627 7624 7618 7621 7608 7608 7604 7604 7591 7598 7595 7595 7588 7582 7591 7588 7578 7575 7568 7572 7578 7575 7578 7572 7572 7568 7572 7568 7572 7572 7575 7578 7595 7598 7601 7621 7631 7654 7664 7670 7693 7723 7765 7811 7896 8080 8179 8920 9507 10147 10859 10692 11112 12427 12342 12483 13684 11965 12260 12267 11217 11551 12467 11811 10459 10042 10029 9478 9041 8740 8641 8497 8375 8280 8225 8231 8248 8261 8238 8244 8195 8225 8277 8372 8484 8536 8684 8874 8966 9064 9068 9124 9274 9389 9432 9753 9730 9983 9888 10173 9957 10360 10570 10295 10754 11292 11420 11263 11112 10958 11292 11174 10544 9671 9166 9146 8946 8740 8517 8152 8333 8044 7401 7109 7178 6778 7358 7073 6896 6594 6541 6171 6151 6033 5951 5925 5938 6013 6026 5928 5892 5826 5702 5626 5816 5669 5764 5646 5492 5377 5469 5479 5554 5685 5725 5567 5593 5659 5590 5534 5416 5321 5347 5393 5469 5554 5570 5541 5482 5403 5364 5291 5249 5213 5209 5196 5141 5065 5006 4954 4895 4940 5062 5144 5111 5059 5036 4986 4963 4944 4947 4990 4986 4970 4908 4862 4865 4845 4832 4829 4796 4770 4750 4724 4698 4685 4655 4688 4671 4685 4711 4675 4639 4619 4612 4599 4622 4629 4652 4648 4609 4589 4560 4530 4514 4488 4484 4478 4445 4445 4442 4478 4537 4553 4563 4547 4494 4481 4481 4481 4461 4435 4419 4402 4379 4353 4347 4376 4416 4452 4471 4534 4491 4432 4412 4389 4396 4373 4376 4366 4360 4317 4291 4258 4219 4189 4153 4140 4133 4127 4143 4127 4110 4094 4091 4084 4074 4084 4091 4133 4137 4107 4055 4041 4035 4028 4028 4025 4084 4087 4094 4055 4140 4163 4127 4091 4140 4097 4127 4163 4186 4160 4176 4173 4143 4124 4061 4035 4015 3982 3989 3950 3943 3930 3940 3963 3963 3979 3996 3986 4028 4074 4068 4087 4041 4022 3982 3953 3943 3946 3950 3891 3923 3976 3979 3996 3989 3982 3979 3989 3969 3956 3933 3854 3891 3894 3910 3894 3884 3940 3940 3891 3815 3835 3877 3868 3907 3927 3956 3937 3914 3894 3884 3851 3835 3825 3812 3792 3815 3835 3809 3877 3881 3868 3818 3809 3789 3779 3779 3779 3812 3779 3766 3766 3730 3736 3769 3792 3825 3835 3776 3766 3769 3736 3766 3812 3825 3825 3766 3723 3694
11738 12998 13185 12844 12634 13372 12273 11578 11538 10255 10078 9921 8684 9583 10426 9156 8789 9704 10000 10288 10921 11564 11856 12217 12555 12296 12096 12509 12545 12027 12096 12431 12982 12168 11417 10823 9806 10495 10803 10728 11742 11345 12526 11059 12188 12588 11938 10839 9570 10518 11341 10360 10721 10629 9875 8966 9094 10518 10544 10498 10931 11076 11476 11351 11072 11591 11138 10820 10636 10830 10157 10820 10800 10925 11210 11453 11469 10895 11870 11669 11614 11712 10967 10324 10538 11040 11975 12841 12053 11709 10875 10757 10912 11230 12011 12818 12706 12201 12408 13077 12837 12076 12267 11998 11919 11925 10616 11056 11204 11033 11466 11666 11876 11893 11085 10928 10446 10150 9753 9895 10305 10249 9849 10095 9832 9767 9947 10167 10331 10721 10570 10580 10295 10170 10075 10068 10013 9983 10216 10616 10357 10265 10390 10465 11089 10853 10482 10255 10203 10052 10272 9937 10114 10301 10200 10190 9852 9849 10252 10429 10754 10843 10721 9822 9396 9327 9245 9051 9019 8966 8891 8792 8897 8293 8143 7969 7795 7749 7726 7696 7657 7641 7618 7624 7618 7608 7621 7608 7598 7601 7598 7595 7591 7595 7588 7588 7585 7585 7578 7575 7568 7575 7568 7562 7568 7572 7568 7568 7568 7565 7568 7572 7578 7568 7582 7585 7595 7614 7621 7621 7634 7657 7670 7687 7709 7713 7762 7860 7952 8024 8267 9094 9753 10278 10104 11289 12145 12631 12280 12969 12450 12312 11860 12001 13034 12454 10839 11299 11085 10321 9573 9183 8963 8786 8589 8431 8323 8244 8290 8293 8303 8290 8284 8264 8248 8290 8353 8428 8497 8513 8638 8858 8937 8897 9110 9176 9396 9550 9622 9603 9622 9921 9767 9963 10147 10351 10236 10790 11207 11368 11200 11036 10895 10875 10895 11158 9996 9294 8986 9087 8946 8736 8353 7785 7473 7716 7526 7299 7493 7434 7244 7168 6804 6499 6473 6141 6148 6076 6204 6125 5974 5954 5859 5898 5866 5866 5839 5820 5790 5626 5554 5419 5442 5505 5662 5656 5702 5672 5656 5633 5610 5633 5600 5387 5354 5446 5390 5492 5620 5561 5482 5433 5383 5354 5314 5278 5255 5278 5259 5200 5118 5059 4983 4940 4963 5072 5209 5137 5114 5082 5029 5003 4967 4986 5042 4993 4960 4917 4891 4872 4832 4803 4786 4767 4747 4744 4721 4698 4711 4717 4724 4724 4721 4688 4662 4668 4645 4629 4616 4652 4662 4632 4609 4589 4570 4543 4524 4504 4517 4484 4471 4452 4458 4478 4524 4586 4576 4563 4534 4507 4468 4442 4452 4429 4416 4402 4379 4363 4350 4363 4412 4461 4478 4534 4511 4468 4435 4425 4373 4340 4320 4330 4343 4340 4340 4281 4261 4212 4166 4160 4150 4173 4150 4163 4153 4133 4104 4101 4097 4078 4078 4068 4064 4055 4055 4041 4038 4035 4038 4064 4068 4097 4120 4140 4097 4110 4160 4146 4120 4160 4137 4156 4199 4225 4202 4179 4160 4110 4078 4035 4009 3999 3982 3966 3946 3937 3923 3963 3976 3996 4022 4032 4025 4035 4094 4104 4068 4019 4012 3963 3956 3937 3937 3907 3927 3966 3959 4002 3979 4012 4002 3989 3989 3969 3950 3904 3848 3887 3940 3940 3920 3907 3950 3943 3887 3805 3861 3907 3907 3897 3950 3969 3953 3933 3914 3884 3845 3848 3825 3838 3812 3838 3851 3864 3881 3868 3835 3825 3805 3812 3805 3795 3812 3805 3799 3776 3766 3746 3730 3792 3809 3848 3848 3812 3802 3805 3753 3799 3832 3845 3782 3746 3753 3743
12385 12870 12273 12083 11722 12460 13106 12595 11988 11286 10731 9015 9284 10574 11450 10177 8704 10111 11305 11765 11909 11364 12290 12670 12490 12073 11820 12417 12811 12621 12614 12634 12486 12444 12096 10249 10111 11263 11528 11181 12522 11961 12860 11558 13044 12001 11246 10485 9885 10515 11194 10971 11397 11440 10531 9199 9025 9924 9940 10246 10616 10849 11371 11387 11256 11551 11341 10987 10830 10265 10357 11210 10728 11082 11535 11896 11469 11282 11437 11958 11991 11929 10853 10613 10590 11105 11479 12388 12496 11650 11033 11916 10803 11748 12591 13464 13113 13077 12765 13553 12896 12536 12621 12349 12076 10935 10583 11722 11643 11227 11223 11161 11204 11236 10836 10564 10101 9845 10006 10331 10593 10364 10232 10472 9757 9875 10006 10101 10341 10547 10908 10711 10508 10551 10351 10209 10734 10364 10406 10554 10561 10538 10531 10869 11328 10994 10708 10449 10121 9914 9983 9950 9852 9855 9934 9986 9868 9983 10354 10485 10944 10997 10948 10078 9360 9179 9061 8736 8592 8471 8353 8293 8451 8356 8100 7893 7782 7723 7700 7677 7657 7641 7618 7614 7608 7604 7618 7608 7604 7598 7601 7595 7588 7591 7595 7582 7578 7578 7578 7578 7578 7568 7572 7572 7575 7568 7575 7562 7565 7568 7562 7572 7572 7575 7575 7585 7591 7604 7614 7618 7634 7654 7670 7687 7687 7706 7742 7791 7887 7982 8228 8490 8996 9288 9763 10554 10633 11312 11551 11883 13001 12139 12175 12211 13015 11587 11092 11423 10744 10236 9573 9435 9199 8815 8618 8458 8336 8274 8339 8336 8339 8369 8303 8303 8316 8274 8333 8382 8438 8595 8622 8684 8815 8864 8963 9232 9206 9324 9606 9642 9475 9576 9757 9819 9875 10062 10324 10839 11128 11079 11158 10908 10987 10859 10885 10121 10262 9845 9104 8861 8822 8241 8031 7749 7923 7460 7634 7670 7513 7299 7312 6958 6879 7030 6758 6332 6161 6108 6095 6131 5915 5921 5997 5971 5882 5820 5843 5774 5567 5495 5459 5419 5705 5636 5675 5675 5685 5659 5656 5672 5610 5544 5462 5387 5419 5419 5442 5495 5597 5534 5508 5465 5433 5400 5347 5324 5301 5285 5288 5239 5183 4960 5036 5003 5016 5219 5259 5206 5160 5111 5082 5026 4970 5019 5075 5026 4990 4944 4924 4901 4865 4826 4809 4783 4770 4760 4724 4727 4737 4753 4757 4734 4694 4688 4717 4685 4662 4635 4625 4652 4639 4612 4589 4573 4553 4527 4524 4498 4481 4478 4465 4442 4517 4543 4576 4606 4593 4550 4507 4478 4465 4438 4425 4419 4412 4399 4386 4363 4356 4379 4409 4461 4484 4501 4471 4445 4419 4386 4356 4324 4297 4294 4291 4288 4281 4248 4209 4169 4160 4153 4176 4176 4173 4192 4176 4179 4150 4101 4117 4097 4074 4061 4061 4055 4058 4041 4038 4045 4087 4074 4078 4140 4173 4156 4146 4114 4160 4166 4150 4189 4153 4160 4206 4232 4186 4143 4114 4087 4055 4022 3996 3973 3959 3943 3937 3937 3982 3986 3999 4015 4048 4045 4064 4058 4097 4107 4068 4025 3992 3973 3973 3973 3956 3917 3950 3966 3999 4005 3996 4005 3996 4005 4005 3966 3910 3868 3887 3946 3963 3966 3930 3943 3963 3900 3835 3802 3868 3933 3940 3946 3963 3969 3963 3933 3894 3871 3841 3868 3851 3861 3835 3861 3874 3897 3910 3871 3838 3832 3845 3838 3832 3805 3838 3828 3802 3779 3772 3750 3753 3799 3832 3868 3881 3851 3848 3809 3772 3805 3861 3809 3789 3809 3779 3789
12477 12890 12552 11820 11735 11377 12778 12834 12063 11099 9901 9242 11079 11407 11866 10662 9635 9124 10708 12057 12309 11975 11758 12329 12621 12378 12086 11660 12362 12214 12217 12591 12352 11873 10757 10059 10928 11706 12372 12309 12244 12322 12742 12273 11879 11108 10265 10705 10101 10810 11325 11866 11423 11633 10636 9701 9117 9514 9924 10301 10232 10610 10925 11322 11640 11866 11400 10980 10587 10180 10442 11085 11118 11269 11719 12375 11765 11676 11345 12578 12457 11729 11115 10787 10797 11112 11853 12408 12375 11751 11656 12129 11601 11154 12772 13825 12670 12440 12486 12644 12532 12129 11643 11227 10682 11030 12007 12060 11627 11578 11207 11118 10892 10570 10721 10160 9950 10223 10400 10967 10682 10291 10442 9881 9511 10285 10396 10078 10259 10711 11164 10964 11236 10895 10636 10236 10935 10898 10613 10770 10820 10721 10744 11072 11358 11138 10744 10554 10226 10170 9963 10029 10082 9901 9816 9924 9711 10022 10354 10577 11010 10410 10351 9904 9475 9005 8753 8822 8776 8605 8389 8428 8139 7988 8264 7837 7742 7693 7670 7650 7641 7631 7608 7608 7608 7604 7608 7601 7604 7595 7591 7588 7588 7588 7585 7582 7585 7578 7578 7578 7575 7572 7568 7565 7568 7568 7565 7565 7562 7559 7572 7565 7572 7572 7575 7582 7591 7598 7611 7624 7631 7631 7641 7654 7667 7680 7709 7759 7818 7939 8126 8349 8628 9038 9770 9977 11181 12506 13392 12572 12316 12742 12411 12011 11706 11686 12713 11669 11322 10547 9983 9770 9127 8789 8569 8444 8369 8333 8385 8385 8336 8402 8336 8310 8402 8323 8313 8484 8513 8540 8605 8648 8923 9025 9041 9166 9238 9294 9350 9547 9629 9570 9642 9694 9688 10059 10190 10652 10928 10898 10971 11069 10980 10866 10200 9793 9235 9186 8654 8497 8566 8001 8382 8057 7723 7896 7870 7618 7693 7657 7447 7326 7280 7070 6755 6397 6240 6151 6056 6043 6040 5977 5918 5925 5885 5810 5698 5669 5620 5557 5511 5531 5748 5718 5708 5679 5659 5643 5662 5715 5610 5459 5482 5452 5495 5508 5479 5623 5636 5547 5528 5524 5469 5436 5410 5331 5311 5229 5331 5298 5223 5173 5124 5049 5059 5173 5337 5275 5219 5187 5137 5088 5013 5111 5108 5042 5019 4977 4954 4914 4881 4842 4826 4803 4770 4767 4747 4724 4780 4770 4737 4717 4737 4737 4740 4694 4668 4645 4629 4625 4603 4596 4573 4560 4540 4520 4524 4507 4501 4484 4465 4468 4494 4560 4599 4596 4563 4537 4517 4494 4484 4448 4438 4432 4396 4396 4396 4360 4360 4396 4406 4432 4445 4452 4435 4429 4383 4353 4327 4297 4281 4261 4251 4235 4238 4199 4179 4179 4176 4199 4189 4192 4183 4196 4189 4183 4153 4110 4160 4166 4143 4081 4101 4101 4061 4091 4081 4081 4104 4087 4124 4137 4189 4199 4176 4150 4169 4196 4192 4229 4202 4222 4212 4219 4176 4156 4117 4058 4045 4019 4005 3989 3950 3943 3959 3963 3986 3999 4015 4048 4064 4087 4110 4104 4124 4097 4058 4032 3992 3982 3969 3982 3930 3910 3937 3986 4012 4028 4015 4025 4012 4002 3966 3914 3904 3946 3920 3969 3986 3982 3943 3950 3933 3891 3884 3822 3841 3877 3933 3969 3969 3959 3953 3930 3923 3884 3841 3900 3887 3858 3854 3884 3894 3920 3894 3864 3838 3835 3871 3874 3851 3832 3864 3861 3828 3786 3756 3766 3805 3799 3822 3858 3920 3907 3864 3818 3792 3815 3868 3818 3848 3874 3795 3818
11624 12204 13097 11824 11213 10754 11148 10938 11187 10383 10075 10593 11371 11624 12135 11354 9560 10039 9708 11253 11978 12509 12171 12273 13008 12283 11902 11364 11410 11026 11177 11722 11837 10616 10603 10731 11932 12972 12772 12362 12808 13513 12611 12713 11758 10646 10885 11338 10862 10744 11748 12522 11751 11807 11007 9967 9012 9730 10577 10833 10774 10964 11466 11712 11965 11745 11443 11053 10629 10285 10416 10623 10882 11341 11637 12224 12526 11843 11315 12293 12988 11797 11627 11076 10688 10859 11387 12063 12664 12125 11801 12129 11610 11112 11669 12759 12647 12162 11929 11820 11673 11246 11056 11272 11574 12401 12411 12250 11515 11994 11601 11325 11082 10383 10216 10013 10193 10538 10741 11013 10492 10226 10134 9852 9845 10141 10479 10236 10288 10836 11683 11338 11653 11128 10856 10508 11279 11043 10541 10472 10275 10209 10305 10577 10820 10731 10442 10538 10232 10203 9767 9891 10029 9763 9563 9740 9793 10275 10282 10498 10656 10187 9839 9717 9215 8904 8937 8585 8920 8458 8221 8064 8261 8166 8120 7824 7746 7687 7650 7637 7624 7618 7611 7604 7604 7598 7598 7591 7591 7591 7585 7591 7585 7582 7585 7585 7582 7572 7575 7582 7565 7572 7559 7568 7568 7562 7559 7559 7562 7562 7568 7565 7568 7568 7575 7582 7591 7591 7608 7614 7614 7627 7650 7667 7673 7683 7716 7742 7808 7916 8064 8257 8484 8805 9438 9678 10436 11371 12621 13487 13562 13566 12519 12080 13231 13441 12893 12322 11456 10620 9865 9757 9127 8805 8681 8490 8438 8379 8451 8425 8421 8405 8398 8349 8389 8395 8356 8372 8471 8645 8700 8746 8759 8956 9071 9189 9245 9383 9445 9527 9478 9468 9524 9379 9511 9960 10308 10538 10875 10951 10938 10646 10941 10793 10167 9393 9032 9009 9071 8750 8651 8566 8320 8093 7933 7896 7677 7650 7650 7444 7549 7434 7375 6886 6627 6496 6309 6184 6089 6181 6082 5967 5915 5823 5856 5826 5679 5820 5813 5643 5554 5544 5807 5797 5731 5715 5682 5646 5570 5524 5498 5593 5544 5488 5590 5593 5528 5629 5639 5551 5561 5541 5511 5462 5396 5341 5357 5196 5354 5121 5255 5164 5167 5098 5065 5141 5229 5341 5285 5223 5160 5121 5006 5196 5141 5098 5068 5016 4980 4931 4895 4872 4842 4826 4796 4776 4760 4744 4790 4770 4734 4767 4770 4753 4717 4675 4648 4632 4619 4612 4593 4580 4570 4550 4537 4537 4524 4511 4498 4481 4488 4478 4484 4534 4589 4603 4580 4593 4550 4511 4498 4471 4461 4442 4432 4406 4383 4363 4363 4386 4412 4406 4419 4432 4425 4416 4409 4383 4350 4330 4314 4278 4261 4245 4202 4183 4176 4189 4212 4202 4199 4189 4186 4202 4202 4183 4153 4137 4163 4179 4153 4097 4137 4137 4091 4117 4107 4110 4107 4104 4150 4173 4222 4278 4179 4173 4163 4222 4238 4340 4242 4340 4274 4248 4229 4173 4137 4101 4051 4032 3992 3973 3953 4002 4019 3982 3996 4015 4038 4068 4114 4124 4166 4150 4101 4061 4038 4019 3989 3986 3973 3940 3933 3956 3999 3982 4019 4035 4015 4028 4022 3959 3891 3917 3933 3976 3976 3999 4005 3986 3982 3973 3953 3923 3930 3861 3877 3897 3920 3946 3963 3953 3946 3959 3943 3881 3871 3923 3917 3897 3861 3904 3917 3933 3914 3868 3861 3854 3904 3900 3877 3868 3868 3861 3835 3795 3766 3766 3799 3822 3835 3897 3950 3927 3871 3825 3815 3848 3914 3858 3894 3904 3841 3818
11794 12362 12723 11991 12132 11601 11384 10780 10118 10285 11364 11807 12112 12408 12316 11040 9370 10977 11056 10154 11394 11771 12421 12759 12798 12621 12047 12434 11318 11922 11587 10777 10692 11204 12142 12162 12529 12837 12454 11679 12093 12565 13366 12431 11499 12191 11236 11656 11564 11417 11906 11459 11318 10767 10685 9730 9012 9763 10531 11230 11227 11637 11902 11860 11781 11751 11404 11148 10777 10436 10652 11181 11250 11384 11794 12093 12142 11929 11548 12240 13038 11856 12093 11676 10941 11148 11469 11922 12467 12775 12142 12145 12283 11528 12276 12024 12631 12129 11994 11742 11794 11837 12591 11856 11669 12450 12139 11958 12244 12293 11272 10912 10800 10813 10331 10085 10442 10908 11633 11095 10633 10127 9895 9917 9796 10495 10577 10508 10902 10456 11286 11768 11446 11026 11141 10862 11030 10643 10498 10206 10167 10288 10082 10390 10912 10866 10469 10177 10114 9990 9826 9842 9881 9668 9603 9576 9691 9898 10452 10538 10232 9744 9340 9215 9146 8763 8595 8559 8438 8359 8152 8323 8074 7956 7834 7759 7706 7667 7634 7627 7611 7604 7604 7598 7601 7598 7595 7588 7595 7582 7582 7585 7588 7585 7578 7582 7568 7575 7565 7572 7572 7565 7565 7559 7565 7559 7559 7562 7552 7555 7555 7562 7565 7568 7572 7578 7591 7588 7604 7611 7614 7631 7641 7660 7670 7693 7723 7755 7818 7860 7998 8162 8359 8684 9491 10633 11115 11624 11843 11843 12158 13267 12322 12322 12854 12312 11417 11069 10554 10383 10600 9881 9265 9025 8828 8674 8517 8458 8507 8490 8494 8477 8421 8405 8438 8418 8392 8392 8431 8556 8559 8763 8884 8868 8992 8950 8999 9222 9416 9235 9366 9507 9343 9219 9557 10065 10200 10351 10554 10754 10810 10741 10561 10127 10285 9662 9858 9639 9488 9248 9081 8608 8379 8116 7972 7805 7631 7345 7293 7312 7378 7191 7043 6883 6827 6706 6246 6266 6269 6154 6089 6007 5892 5866 5810 5826 5823 5751 5652 5784 5570 5682 5688 5734 5780 5770 5702 5675 5623 5633 5564 5708 5534 5534 5702 5669 5587 5669 5626 5561 5580 5583 5551 5492 5439 5456 5406 5000 5190 5360 5301 5187 5213 5147 5134 5216 5324 5403 5223 5288 5229 5072 5036 5249 5183 5127 5082 5036 4986 4960 4921 4898 4872 4862 4832 4790 4776 4757 4760 4753 4773 4786 4744 4701 4681 4668 4635 4622 4606 4599 4593 4583 4570 4550 4550 4560 4560 4520 4511 4534 4530 4488 4484 4547 4603 4603 4612 4576 4543 4524 4507 4478 4461 4442 4419 4402 4379 4386 4373 4376 4399 4432 4432 4432 4416 4406 4402 4389 4366 4330 4317 4271 4271 4229 4202 4186 4219 4215 4222 4222 4215 4196 4199 4206 4206 4166 4133 4169 4183 4183 4169 4101 4183 4176 4094 4146 4127 4156 4146 4156 4153 4199 4271 4297 4271 4192 4176 4245 4337 4360 4340 4340 4258 4235 4235 4179 4137 4094 4048 4035 4009 3989 3959 4035 4035 4009 4022 4048 4045 4071 4127 4179 4179 4140 4110 4081 4061 4015 3992 3969 3979 3982 3979 3943 4012 4015 4038 4045 4041 4038 4022 3976 3927 3976 3946 3953 3996 4002 4012 3996 4025 4005 3992 3946 3877 3835 3858 3858 3914 3963 3959 3966 3953 3966 3943 3887 3881 3927 3943 3943 3910 3900 3930 3933 3910 3907 3871 3868 3900 3900 3914 3897 3871 3851 3825 3805 3766 3769 3818 3845 3881 3894 3959 3930 3861 3841 3858 3868 3923 3874 3877 3868 3822 3786
11545 11692 12024 12749 12923 12785 11604 11551 10846 10869 11689 12122 11807 12395 11942 10505 9750 11394 12319 10836 10728 11263 11440 11883 12427 12660 12552 12191 11863 13126 12070 11719 12493 12191 12687 12696 13218 12312 11541 12230 13067 12746 13638 12536 11883 12352 12211 12142 11948 12043 11965 11099 10570 10206 10393 9370 9061 10370 10649 11400 11919 12171 11876 11811 11732 11391 11217 11187 10675 10347 10780 11131 11538 11620 11801 12575 12204 12125 11617 12365 13146 12260 12667 11420 11712 11351 12312 11669 12125 12700 12237 11732 12253 12057 12129 12601 12486 12729 12513 12378 12601 12657 12454 11489 12263 12477 12414 12096 12362 11620 11437 11181 10892 10613 10170 10423 10833 11591 11916 10866 10377 10167 9872 9790 9908 10236 10623 10695 11197 10751 10984 11909 11473 11450 11315 11122 10711 10662 10331 10180 10285 10114 9996 10278 10685 10859 10688 10314 9737 9622 9878 9635 9740 9458 9268 9599 10039 10127 10229 10321 9701 9481 9215 9219 8897 8730 8628 8615 8300 8254 8152 8061 7936 7874 7798 7749 7693 7660 7618 7608 7608 7591 7595 7598 7598 7595 7595 7588 7588 7575 7582 7578 7582 7578 7568 7568 7568 7568 7565 7562 7572 7568 7565 7559 7568 7559 7562 7559 7559 7555 7559 7555 7562 7568 7575 7572 7585 7591 7601 7608 7621 7621 7637 7644 7660 7670 7693 7736 7765 7814 7919 8044 8277 8740 9681 10347 10383 10872 11194 12398 12916 13454 13881 11729 11643 11243 11131 11105 11407 10679 10298 9842 9445 9150 8914 8566 8503 8582 8579 8543 8526 8490 8490 8435 8513 8448 8471 8428 8513 8494 8671 8661 8868 8969 9032 9097 9048 9140 9248 9360 9557 9209 9576 9120 9760 9983 10127 10442 10321 10797 10797 10751 10518 10600 10377 10167 10239 10131 10232 9888 9169 8625 8379 8369 8074 7887 7627 7513 7319 7244 7001 6971 7004 6751 6614 6433 6482 6368 6233 6108 6040 5948 5862 5839 5816 5810 5810 5790 5770 5787 5731 5541 5751 5767 5780 5787 5751 5698 5679 5643 5616 5711 5541 5652 5741 5754 5666 5666 5636 5583 5626 5610 5547 5521 5498 5442 5452 5144 5442 5429 5370 5301 5278 5216 5190 5190 5311 5255 5383 5331 5282 5085 5065 5223 5242 5167 5131 5085 5022 4996 4950 4921 4911 4872 4839 4816 4786 4786 4786 4796 4790 4767 4737 4694 4658 4642 4642 4632 4648 4639 4603 4589 4580 4593 4596 4593 4543 4524 4543 4566 4543 4491 4488 4530 4576 4616 4609 4570 4547 4520 4491 4471 4445 4419 4406 4396 4396 4386 4389 4399 4419 4438 4435 4422 4402 4386 4383 4350 4337 4304 4291 4271 4248 4219 4209 4222 4232 4232 4235 4245 4232 4212 4212 4209 4179 4156 4179 4202 4202 4206 4166 4120 4179 4179 4101 4196 4153 4189 4189 4199 4163 4183 4242 4301 4301 4215 4183 4255 4284 4340 4333 4274 4215 4179 4189 4169 4110 4074 4064 4038 4028 4019 3956 3999 4045 4025 4048 4068 4078 4087 4107 4173 4219 4192 4150 4124 4071 4035 3996 3996 4009 3963 3940 3973 4005 4025 4045 4022 4012 4019 4028 3953 3917 3973 3996 3982 4005 4022 4015 4032 4009 3989 3973 3937 3891 3877 3904 3946 3950 3953 3986 3986 3969 3973 3920 3891 3894 3927 3946 3973 3933 3894 3950 3943 3917 3907 3887 3874 3910 3917 3927 3891 3864 3835 3822 3792 3789 3782 3818 3848 3881 3933 3959 3946 3874 3874 3907 3910 3891 3838 3818 3832 3792 3759
10669 10734 11745 12477 12342 12906 12431 12752 11922 11007 11866 12683 12739 12073 11053 9694 10193 11243 12463 10958 11105 11660 11604 11778 12066 12076 12982 12408 12447 13234 12631 12496 12565 13418 12883 12611 12591 11368 12050 12913 12506 12598 12673 13074 12634 12355 13349 13372 12749 12267 12726 11889 11197 10249 9566 9015 9629 10396 10800 11417 11893 11732 11653 11643 11551 11076 11007 10620 10501 10413 10669 10912 11548 12050 12608 13221 13031 12440 12063 12513 12637 12979 12155 11765 12093 11889 11998 12437 12585 12542 12099 11617 12332 12906 12713 12358 11738 11833 12244 11843 12388 12916 11889 12473 13379 13179 13051 12906 12687 11692 11194 10449 10564 10623 10708 10784 10977 11971 11984 10902 10351 10167 9990 10042 10167 10725 10495 10925 11446 10977 11053 12027 11975 11824 11328 11171 10977 10866 10679 10534 10311 10104 9895 10154 11062 10636 10354 10078 9668 9350 9947 10127 9580 9665 9416 9895 9662 9744 10052 10436 9937 9271 9160 9081 9304 9025 8553 8444 8218 8143 8202 8041 8018 7867 7791 7729 7683 7657 7621 7611 7604 7591 7595 7588 7595 7591 7588 7595 7578 7591 7578 7575 7575 7568 7565 7562 7572 7572 7562 7559 7562 7562 7565 7559 7568 7555 7555 7559 7559 7555 7552 7552 7562 7568 7568 7582 7582 7588 7595 7598 7608 7618 7631 7641 7654 7677 7693 7696 7726 7775 7831 7913 8051 8395 9061 9524 10305 11259 12066 11496 12332 12309 12568 13395 11555 12296 12654 12677 11440 10813 10242 9924 10032 9258 8786 8605 8612 8723 8707 8628 8579 8549 8556 8487 8536 8507 8517 8451 8536 8562 8585 8763 8736 8864 8897 8999 9110 9156 9379 9219 9041 9025 9481 9015 9356 10049 10157 10095 10170 10190 10538 10813 10688 11230 11473 11519 11236 10613 10150 9714 9389 9124 8982 8553 8234 7900 7667 7434 7309 7185 7178 6952 6755 6620 6571 6663 6906 6614 6230 6076 6036 5964 5918 5816 5754 5754 5787 5790 5777 5662 5561 5738 5734 5761 5777 5803 5816 5761 5718 5718 5708 5685 5636 5767 5708 5816 5672 5623 5613 5629 5659 5633 5593 5580 5528 5501 5498 5367 5442 5485 5403 5334 5328 5291 5249 5239 5360 5337 5419 5351 5236 5065 5091 5255 5288 5213 5180 5134 5072 5026 4993 4957 4917 4868 4855 4849 4822 4826 4835 4806 4750 4714 4694 4675 4665 4652 4652 4691 4698 4658 4609 4635 4616 4639 4625 4573 4540 4553 4570 4596 4540 4501 4494 4547 4612 4629 4619 4612 4557 4563 4504 4461 4448 4425 4412 4412 4409 4412 4419 4435 4435 4435 4422 4389 4370 4343 4314 4314 4307 4301 4291 4268 4232 4219 4232 4245 4248 4258 4268 4268 4261 4242 4232 4192 4176 4196 4206 4215 4219 4212 4163 4156 4215 4196 4130 4176 4192 4215 4271 4219 4212 4196 4235 4265 4356 4248 4238 4265 4317 4370 4291 4248 4212 4150 4124 4120 4081 4058 4028 4022 4019 3992 3959 4035 4012 4051 4061 4094 4124 4153 4150 4192 4179 4140 4143 4110 4091 4048 4028 4022 3982 3946 4009 3989 4025 4051 4038 4045 4045 4025 4005 3927 3966 3959 3992 4015 4009 4045 4035 4028 3999 3963 3940 3946 3877 3874 3920 3969 3969 3979 3976 4002 3989 3953 3904 3920 3923 3904 3943 3973 3976 3923 3953 3956 3953 3933 3930 3897 3910 3933 3923 3910 3871 3841 3828 3825 3809 3786 3845 3858 3877 3930 3966 3956 3923 3923 3937 3874 3838 3815 3779 3772 3772 3759
9872 10774 11177 11729 11640 11978 12706 12342 11397 11568 11860 12444 11781 11302 10308 9648 10416 11646 12240 10921 11925 11870 12027 11896 11975 11837 12280 12867 13418 13090 12683 12483 12345 11961 11489 11479 11338 10967 12129 11952 11601 12345 12716 13270 13559 13169 12926 12598 12112 11870 11725 11407 11072 10249 9458 9160 10013 10603 11213 11656 11630 11561 11555 11236 11302 11315 10961 10606 10718 10613 10921 11190 11722 12198 12280 12477 12982 13103 12608 12867 12109 12296 12381 12368 12677 12322 12299 12381 12053 12296 12080 11607 11866 13021 12749 12230 12627 11778 11102 11975 13129 13028 12522 12949 12467 12290 12362 12559 12450 11784 10941 10918 10728 11151 10967 11095 11512 12043 11696 11430 10426 10078 10042 10331 10374 10895 10823 10830 11286 11003 11145 12030 12316 11791 11738 11499 11276 10813 10895 10472 10193 10518 10255 9947 10593 10964 10200 10118 9822 9281 10101 10679 10104 9504 9586 9580 9425 9803 10055 10269 9629 9189 9048 9087 8730 9015 8645 8353 8244 8139 8054 8123 7870 7837 7769 7709 7677 7644 7624 7611 7601 7595 7598 7595 7591 7585 7591 7582 7585 7585 7578 7568 7565 7565 7559 7562 7559 7565 7565 7559 7565 7562 7555 7562 7562 7565 7555 7542 7552 7549 7559 7559 7559 7565 7565 7565 7572 7575 7588 7591 7595 7611 7621 7621 7647 7654 7673 7693 7706 7732 7782 7900 8080 8389 8766 9576 10613 10469 10793 10574 10564 11286 11850 12037 12444 12890 12063 12273 12142 11076 10574 10423 10675 9606 9038 8845 8851 8818 8805 8720 8641 8651 8631 8540 8605 8631 8500 8536 8572 8523 8628 8815 8861 8822 8917 9101 9307 9258 9140 8969 8900 8907 9215 9133 9550 9947 9986 9658 9816 10570 10728 10921 11115 11085 11243 11420 11443 11250 10803 10104 10009 10055 9251 8822 8185 7890 7549 7513 7395 7080 7034 7047 7093 6620 7034 7073 7109 6755 6318 6112 6062 5987 5912 5823 5764 5725 5685 5688 5626 5600 5669 5702 5734 5741 5764 5797 5810 5790 5770 5721 5741 5734 5708 5764 5813 5830 5636 5574 5564 5606 5623 5643 5646 5613 5577 5557 5485 5469 5141 5528 5446 5423 5396 5357 5295 5282 5374 5393 5524 5262 5170 5095 5160 5259 5347 5291 5226 5150 5141 5078 5013 4950 4931 4888 4881 4875 4852 4868 4826 4770 4737 4740 4714 4701 4681 4681 4691 4727 4704 4642 4645 4665 4662 4629 4593 4560 4573 4586 4586 4603 4537 4514 4504 4560 4603 4645 4645 4593 4560 4514 4491 4461 4458 4445 4455 4438 4432 4435 4455 4458 4445 4435 4409 4373 4356 4350 4333 4301 4288 4291 4278 4238 4229 4229 4261 4274 4281 4301 4314 4288 4265 4242 4209 4199 4232 4229 4222 4225 4238 4229 4169 4173 4235 4219 4150 4248 4235 4255 4327 4255 4278 4238 4245 4288 4370 4297 4314 4255 4307 4383 4281 4229 4166 4133 4114 4094 4078 4071 4048 4019 4038 4012 3973 4032 4041 4045 4084 4107 4160 4202 4219 4219 4179 4137 4101 4094 4068 4068 4035 4028 3986 3976 4025 4041 4051 4048 4041 4058 4041 3976 3959 3953 3973 4005 4005 4035 4058 4071 4025 4009 4005 3982 3904 3887 3881 3894 3950 3973 3996 3999 3999 4022 3989 3943 3966 3950 3940 3914 3940 3982 3959 3963 3986 3989 3982 3973 3959 3920 3917 3946 3923 3897 3864 3851 3841 3832 3822 3786 3822 3841 3874 3897 3937 3969 3933 3950 3933 3907 3877 3854 3805 3766 3727 3733
9924 9937 9950 11272 10961 11788 12139 12719 11893 12211 12965 12627 11998 11240 10351 9694 10570 11889 12500 11466 11788 12572 12414 12283 12680 11601 12755 13441 12680 12706 12637 12532 12398 10889 10797 10803 10718 10741 11115 11164 11856 13192 13297 12296 12782 12719 12385 12339 11417 11246 11243 10990 10521 9727 9137 9478 10374 11023 11492 11912 11476 11512 11414 11643 11555 11145 10839 10826 11043 11079 10889 11062 11354 11679 12214 12375 12378 12555 12611 12312 12263 11437 11676 12270 12522 11955 12762 12293 11850 11791 12388 11597 11673 12595 12791 12106 11952 12020 11417 11473 12276 13254 12949 12339 12089 11850 11725 11594 11315 10731 11049 11240 11213 11318 11108 11338 11463 11870 11742 10915 10643 10232 10498 10708 10554 11053 11036 10875 10987 11138 11302 11932 12188 12011 12066 11856 11259 11263 10866 10498 10803 10820 10390 9773 9885 10652 10360 10009 9494 9169 9570 10203 9708 9655 9393 9337 9698 9727 9967 10127 9547 9120 8884 9038 8871 8566 8467 8677 8441 8353 8188 7956 7992 7785 7749 7716 7673 7641 7627 7611 7595 7598 7588 7588 7591 7588 7585 7582 7585 7582 7578 7572 7565 7562 7568 7572 7555 7565 7559 7555 7555 7555 7562 7562 7562 7562 7555 7559 7555 7552 7559 7552 7555 7562 7562 7562 7568 7568 7578 7585 7588 7601 7611 7611 7637 7650 7667 7687 7716 7723 7749 7818 7942 8133 8402 9179 9370 9481 9977 10908 11774 12208 11981 12608 13087 12673 11778 11384 12145 11971 11223 10800 10252 10121 9186 8943 8982 8943 8910 8782 8710 8707 8681 8664 8648 8618 8615 8592 8562 8579 8677 8687 8894 8930 9058 9084 9229 9324 9028 8871 8854 8881 9061 9320 9458 9737 10006 9655 9688 10288 10580 10921 10895 11246 11282 11328 11414 11414 11381 11177 10744 9983 9639 8920 8267 8123 7683 7641 7290 7181 7027 6870 7007 6994 6975 7037 7070 6804 6417 6148 6079 6036 5928 5839 5816 5787 5793 5780 5675 5646 5767 5767 5741 5770 5780 5797 5810 5810 5823 5767 5754 5770 5718 5754 5839 5843 5610 5528 5498 5557 5593 5583 5564 5567 5623 5583 5551 5531 5085 5541 5511 5456 5406 5393 5337 5354 5426 5364 5262 5216 5114 5157 5160 5252 5396 5334 5285 5246 5173 5118 5039 4967 4921 4944 4927 4888 4885 4868 4829 4806 4770 4750 4734 4704 4685 4698 4711 4767 4704 4688 4694 4665 4632 4596 4576 4580 4603 4619 4606 4570 4543 4517 4511 4563 4616 4678 4642 4603 4550 4511 4494 4465 4465 4458 4461 4458 4465 4465 4475 4481 4461 4442 4435 4409 4396 4376 4343 4314 4301 4271 4251 4235 4238 4242 4274 4294 4307 4307 4297 4271 4245 4222 4212 4235 4245 4238 4242 4251 4255 4245 4186 4186 4238 4245 4183 4222 4258 4271 4343 4320 4340 4311 4307 4291 4379 4297 4396 4301 4337 4333 4248 4219 4219 4176 4133 4117 4097 4071 4048 4058 4078 3996 3976 4055 4068 4064 4081 4107 4143 4199 4245 4245 4209 4166 4104 4074 4048 4035 4019 4002 3992 3979 4045 4051 4064 4051 4058 4068 4058 4015 3963 4015 3976 4019 4055 4081 4074 4051 4019 3979 3973 3953 3927 3887 3884 3900 3937 3953 4005 4022 4035 4015 3979 3966 3979 3966 3946 3930 3940 3973 3979 3999 4015 4022 4005 3982 3933 3917 3900 3943 3930 3920 3884 3871 3854 3845 3838 3795 3818 3832 3851 3877 3914 3946 3904 3904 3894 3848 3832 3835 3822 3766 3736 3740
8789 8825 9130 9721 11197 11597 11883 12601 12762 13205 12227 12227 11040 10354 9770 10000 10833 11866 12349 11984 11820 12949 12460 12034 11879 11624 11922 12155 12395 12618 12162 11824 11207 11735 12631 12368 11791 10764 10826 12211 12627 12979 13379 12181 11827 11925 11371 11978 11450 10597 10875 10482 9530 9140 9291 10406 10830 11437 12175 12080 11715 11620 11778 11938 11837 11276 11286 11128 11128 11171 10843 11250 11656 12188 12290 12309 12329 12204 12185 12312 12309 11824 11538 11341 12181 11548 12477 12568 12309 11568 12178 11778 11213 12339 12191 12086 11561 12096 11430 11046 12211 12532 13700 12880 12463 12112 11640 11758 11663 11250 11758 11148 11597 11847 11427 11164 11030 11053 10820 10895 10269 10232 10580 10915 10885 10977 11522 11338 11040 11610 11774 12293 12004 11984 11837 11430 11289 11594 11233 10875 11341 11020 10393 10154 9888 9491 9842 9770 9652 9560 9084 9511 9826 9337 9012 9501 9724 9793 10085 9783 9261 8989 8822 8832 8684 8645 8658 8379 8366 8156 8011 7939 7870 7814 7769 7713 7673 7650 7624 7611 7595 7585 7595 7598 7585 7585 7588 7585 7582 7582 7572 7572 7559 7565 7565 7562 7552 7562 7555 7562 7559 7555 7555 7555 7565 7559 7555 7559 7552 7562 7559 7552 7552 7552 7559 7562 7562 7568 7565 7578 7588 7598 7604 7618 7624 7644 7657 7693 7690 7729 7742 7801 7906 8061 8274 8566 9727 9977 11190 11758 12362 12004 12145 12001 11794 12929 12483 11384 11066 11719 11220 10721 10200 9819 9498 9229 9094 8989 9041 8923 8868 8779 8740 8736 8638 8562 8628 8625 8595 8572 8628 8756 8799 8999 9058 9199 9229 9091 8900 8809 8825 8838 8937 8835 9186 9576 9714 9311 9816 10278 10508 10721 10761 11069 10908 11125 11305 11250 11345 11325 11361 11036 9753 9445 8881 8418 7880 7585 7555 7273 7135 6912 6824 6925 6817 6922 6804 6499 6279 6118 6030 6020 5958 6085 6076 6079 6049 5800 5941 5905 5708 5839 5797 5797 5784 5807 5810 5790 5810 5836 5784 5767 5764 5777 5810 5862 5593 5498 5479 5531 5583 5587 5574 5538 5570 5633 5626 5590 5101 5587 5541 5508 5452 5439 5396 5393 5331 5255 5203 5167 5121 5236 5252 5272 5479 5321 5337 5252 5232 5164 5088 5013 4970 4970 4924 4895 4858 4852 4835 4816 4826 4763 4730 4704 4708 4730 4744 4783 4750 4734 4668 4622 4619 4616 4606 4616 4639 4655 4619 4599 4550 4527 4537 4547 4612 4675 4639 4589 4537 4524 4514 4501 4481 4488 4484 4481 4484 4494 4488 4494 4481 4465 4448 4435 4406 4373 4337 4324 4327 4307 4255 4251 4248 4271 4301 4317 4320 4314 4291 4268 4248 4242 4238 4255 4265 4248 4258 4258 4268 4245 4192 4229 4248 4281 4199 4219 4202 4235 4314 4350 4366 4363 4350 4350 4343 4406 4432 4393 4386 4343 4281 4265 4219 4179 4150 4117 4091 4061 4055 4051 4022 3986 4022 4058 4064 4084 4107 4114 4130 4160 4189 4251 4192 4160 4104 4078 4045 4032 4002 4025 3976 3963 4045 4061 4064 4068 4061 4071 4068 3996 3950 4002 4005 4038 4064 4094 4101 4061 4035 4022 3973 3956 3943 3946 3907 3956 3950 3989 3982 4028 4041 4041 4002 3953 3979 4002 3982 3940 3956 3969 4002 4019 4032 4028 4002 3969 3959 3950 3940 3953 3963 3937 3900 3887 3871 3874 3825 3822 3835 3861 3858 3887 3923 3956 3907 3851 3848 3825 3809 3789 3772 3750 3743 3763
9107 9960 9593 9009 10731 12401 12135 12585 13146 12381 11551 11190 10357 10039 10429 10938 10413 11801 13202 12286 12004 12522 11916 12070 11686 11761 11030 11692 13061 13110 12506 12247 11768 12260 13166 11952 11774 11610 10721 12145 13192 12854 13005 12683 11653 11112 11266 11158 10925 10564 9855 9632 9124 9343 9888 10577 11414 12181 11958 11817 11765 11853 12007 12043 11919 11578 11377 10892 11148 11079 10859 11171 11853 12270 12224 12234 12198 12007 12155 12257 12057 12080 11883 10974 11627 11279 11899 12043 12509 11584 11893 11430 11354 11630 12080 12007 11505 11519 10954 10928 12014 12506 13195 13415 12490 12165 12335 12158 11722 11709 11729 11453 12188 12057 11341 11505 11282 11253 10921 10364 10347 10587 10488 10925 11161 10958 11666 11696 11318 11830 12549 12175 11801 11814 11499 11794 11788 12011 11315 11325 11243 10964 10692 10495 10629 10236 9320 9599 9740 9694 9393 9140 9570 9160 9094 9803 9648 10098 10393 10065 9284 8979 8727 8766 8704 8674 8520 8543 8179 8202 8015 7923 7860 7795 7752 7709 7673 7650 7631 7618 7601 7595 7598 7588 7585 7588 7582 7582 7575 7582 7572 7572 7568 7565 7562 7555 7559 7559 7552 7552 7559 7555 7555 7555 7552 7559 7552 7555 7549 7559 7559 7549 7549 7549 7552 7562 7552 7562 7572 7575 7582 7591 7595 7608 7611 7627 7650 7660 7677 7700 7729 7778 7877 8034 8251 8710 9573 10561 11305 11617 11502 11210 11322 11030 11955 12857 12641 11532 11040 10807 11174 10524 10442 10200 10167 9311 9560 9219 9097 9015 8927 8825 8795 8664 8671 8690 8677 8654 8569 8523 8572 8799 8851 8959 9183 9330 9376 9005 8907 8694 8841 8891 9005 8690 8612 8989 9268 9573 9619 9960 10331 10016 10603 10964 10708 11108 11266 11082 11233 11361 11079 11033 10291 9901 9435 8966 8113 7919 7463 7221 7221 7027 6797 6788 6653 6492 6351 6286 6266 6141 6108 6082 6085 6085 6095 6099 5846 6043 5994 5944 5885 5784 5830 5921 5830 5849 5797 5741 5780 5823 5830 5702 5682 5787 5767 5636 5554 5472 5442 5544 5597 5590 5597 5574 5485 5574 5643 5144 5298 5613 5583 5521 5479 5452 5423 5377 5337 5298 5246 5193 5216 5255 5278 5337 5377 5390 5396 5334 5275 5203 5114 5059 4996 4934 4921 4901 4862 4816 4809 4796 4783 4763 4737 4711 4727 4776 4773 4767 4734 4681 4642 4648 4655 4658 4629 4662 4678 4645 4619 4580 4553 4537 4543 4547 4616 4662 4622 4580 4550 4550 4563 4534 4494 4507 4517 4517 4520 4514 4501 4484 4465 4465 4452 4422 4409 4366 4347 4343 4337 4288 4258 4261 4265 4301 4314 4327 4327 4327 4291 4274 4258 4242 4265 4258 4271 4271 4284 4271 4278 4265 4202 4268 4258 4297 4251 4258 4255 4245 4251 4278 4307 4379 4422 4432 4432 4442 4448 4406 4399 4324 4294 4258 4222 4192 4143 4114 4097 4068 4055 4035 4045 3982 4012 4068 4068 4081 4120 4140 4166 4183 4248 4206 4192 4137 4107 4078 4048 4025 4019 3999 3999 4005 4032 4087 4081 4084 4064 4058 4058 3999 3956 4025 4041 4058 4087 4124 4101 4074 4061 4028 4015 3996 3982 3966 3897 3950 3966 4025 4028 4025 4028 4045 4025 3989 3989 4012 3992 3969 3976 3996 4019 4035 4068 4035 3992 3963 3982 3996 3963 3976 3969 3940 3917 3894 3897 3858 3838 3848 3854 3854 3871 3904 3940 3969 3914 3877 3835 3818 3812 3792 3769 3769 3759 3795
9425 11112 11433 10508 10052 11351 11998 12555 13123 12723 11174 10695 10328 10780 10990 11614 11194 11811 12959 12713 12480 12142 12864 12060 12322 12496 11335 11322 12040 13241 12854 12076 12230 13083 12244 12224 12870 11666 10538 10921 12096 13458 13067 12483 12086 11125 10793 10465 10498 9996 9878 9297 9340 9944 10321 10964 11505 11991 11725 11528 11735 11827 11870 11909 11706 11568 11141 10646 10948 11066 10702 11082 11902 12125 11817 12185 12119 11712 12119 11906 11991 12280 12349 11515 10721 11043 11217 11643 12155 11548 11640 11194 11627 11430 11850 11814 11827 10606 10416 11210 11594 12188 12477 13185 13444 12808 12624 12604 11942 12349 12132 11975 11863 11525 11371 11473 11712 11482 10685 10780 10442 10823 10564 10859 11509 11305 11332 11840 11607 12260 12578 12099 11574 12152 11673 11404 11368 12283 11955 11564 11335 11099 10603 10226 10439 10216 9885 9248 9803 9461 9475 9442 8904 9301 9169 9274 9799 10337 10396 10311 9412 9015 8792 8566 8710 8704 8543 8549 8369 8290 8028 7926 7831 7778 7729 7693 7670 7647 7627 7614 7608 7601 7595 7595 7595 7588 7588 7585 7578 7582 7572 7565 7568 7568 7555 7559 7555 7559 7555 7555 7549 7552 7549 7555 7552 7552 7552 7552 7552 7545 7552 7552 7549 7555 7552 7549 7555 7568 7562 7572 7578 7585 7595 7608 7614 7631 7647 7673 7670 7687 7713 7746 7821 7929 8149 8517 9291 9570 10449 10695 10610 10314 10246 10761 11397 12326 12952 12168 12342 10738 10898 11243 10774 10029 9711 9881 9721 9383 9048 9071 8963 8854 8795 8759 8697 8687 8585 8523 8448 8412 8562 8851 8943 9025 9229 9317 9271 8914 8746 8576 8546 8792 8953 8786 8287 8599 8799 9130 9589 9829 9786 10223 10528 10800 10495 11040 10987 10862 11062 10987 10928 10767 10078 9658 9501 9179 8802 7952 7506 7303 7158 6994 6840 6719 6594 6482 6410 6332 6305 6250 6259 6184 6194 6017 6026 5889 6046 6049 5984 5977 5935 5889 5908 5938 5898 5895 5833 5721 5698 5823 5839 5738 5564 5587 5613 5597 5521 5469 5442 5551 5528 5600 5606 5285 5390 5160 5360 5305 5587 5626 5574 5528 5521 5524 5462 5393 5347 5334 5288 5246 5328 5351 5321 5410 5331 5305 5226 5364 5252 5229 5104 5029 5009 4914 4878 4855 4858 4832 4790 4780 4780 4753 4744 4767 4767 4812 4783 4734 4691 4665 4668 4704 4691 4675 4655 4694 4678 4648 4619 4603 4576 4547 4550 4550 4612 4688 4639 4596 4580 4586 4599 4553 4524 4514 4520 4524 4501 4501 4488 4465 4442 4429 4438 4406 4389 4370 4360 4343 4314 4281 4271 4271 4281 4324 4343 4347 4360 4333 4288 4274 4261 4251 4271 4284 4278 4281 4297 4297 4281 4255 4242 4284 4261 4301 4265 4294 4314 4284 4320 4294 4347 4356 4386 4412 4461 4468 4435 4353 4297 4274 4251 4284 4248 4196 4143 4110 4094 4081 4078 4028 3989 4015 4068 4028 4048 4097 4117 4166 4202 4232 4215 4186 4156 4124 4110 4087 4061 4048 4032 4002 3992 4028 4071 4078 4061 4074 4091 4038 4002 3976 3982 4068 4068 4071 4104 4169 4133 4094 4094 4058 4041 4009 3963 3933 3910 3986 4005 4019 4048 4028 4084 4048 4051 4015 3999 4019 4025 4002 3986 4009 4045 4064 4068 4041 4012 3969 4012 4025 4022 4022 3963 3923 3894 3891 3923 3838 3848 3845 3897 3868 3884 3904 3940 3956 3920 3864 3851 3861 3868 3838 3789 3779 3759 3828
9622 11499 11850 11528 10836 12365 11827 12516 12874 12595 11607 10816 10705 11571 11433 11637 11653 11925 11958 12257 13274 12604 12647 11879 12785 12139 11404 10810 12122 12286 13087 12043 12887 13467 12706 12703 13293 11978 11164 10147 11223 11925 12050 11942 11387 10501 10242 10282 10137 9937 9471 9251 9898 10590 10721 11138 11807 11614 11499 11607 11830 11453 11643 11715 11558 11453 10921 10534 10666 10964 10636 10928 11676 11748 12119 12158 12060 11574 12089 11709 12053 12565 11788 11341 11591 10754 10567 11315 11463 11391 11646 11181 11076 11013 11765 11742 11017 10643 10328 10708 11128 11607 12073 12230 12821 13156 13051 12808 12644 12841 12280 11886 11532 11502 11519 11158 10849 10826 10721 10921 10961 11381 10967 10469 10849 11263 11801 12306 12234 12447 11932 12263 11528 11827 11738 11164 11190 11961 11502 11236 11164 10718 10672 10400 9783 9589 9311 9163 9212 9324 9730 9461 9081 9150 8953 9206 9520 10144 10249 10524 9452 9009 8736 8628 8497 8602 8566 8956 8398 8133 8123 7831 7782 7746 7716 7693 7650 7644 7627 7614 7611 7608 7591 7588 7591 7591 7588 7575 7582 7585 7572 7568 7572 7565 7562 7555 7559 7559 7549 7559 7552 7549 7559 7555 7552 7552 7552 7552 7555 7555 7552 7549 7552 7549 7549 7555 7559 7555 7578 7575 7578 7591 7591 7604 7611 7621 7644 7660 7680 7696 7713 7742 7759 7870 7995 8293 9022 9668 10485 10419 9858 9917 10869 12030 11879 12335 13097 12549 12683 11459 10314 11213 10925 10449 10055 9809 9422 9288 9281 9104 8969 8907 8845 8723 8654 8602 8474 8428 8389 8385 8625 8772 8996 9071 9215 9258 8973 8799 8740 8625 8549 8641 8740 8848 8221 8264 8543 8707 8986 9343 9314 9963 10200 10505 10370 10738 10830 10721 11007 11256 11200 11053 10521 10216 8943 8592 8051 8215 7798 7463 7224 7014 6866 6755 6663 6568 6476 6417 6269 6200 6164 6112 6030 5971 5964 5990 6043 6092 6056 6082 6003 5954 5994 5944 5941 5793 5708 5688 5659 5616 5633 5593 5564 5469 5485 5498 5469 5442 5423 5380 5620 5377 5367 5587 5554 5305 5305 5436 5570 5544 5551 5577 5616 5528 5442 5393 5311 5301 5298 5252 5416 5396 5351 5324 5298 5216 5154 5193 5124 5075 5042 4977 4931 4993 4934 4895 4842 4812 4809 4812 4799 4773 4753 4783 4819 4826 4780 4730 4688 4704 4740 4740 4724 4708 4694 4701 4691 4662 4632 4606 4583 4560 4560 4566 4606 4678 4648 4619 4612 4609 4599 4553 4547 4524 4524 4507 4488 4494 4465 4435 4412 4399 4396 4376 4366 4356 4353 4311 4297 4284 4301 4281 4297 4337 4350 4356 4363 4320 4294 4278 4268 4261 4288 4307 4307 4307 4297 4307 4304 4245 4278 4311 4291 4294 4307 4297 4376 4304 4370 4330 4396 4383 4438 4458 4448 4465 4373 4330 4274 4238 4209 4235 4232 4189 4140 4124 4104 4101 4101 4012 4009 4041 4068 4055 4081 4078 4101 4150 4222 4225 4183 4150 4143 4117 4097 4078 4051 4038 4025 4012 4015 4058 4084 4094 4101 4087 4087 4068 4091 3963 4064 4019 4068 4120 4104 4166 4173 4114 4084 4038 3996 3999 3933 3943 3943 3959 4019 4038 4061 4084 4087 4101 4068 4035 4009 4038 4071 4009 3999 4045 4081 4091 4055 4028 4009 3989 4032 4038 4015 4012 3973 3940 3904 3871 3854 3835 3854 3854 3927 3897 3884 3923 3966 3950 3897 3858 3887 3894 3864 3809 3789 3789 3809 3851
10770 11843 12687 11863 11243 12057 12470 12709 12493 12004 11151 11023 11358 11817 11843 11505 12165 11643 11404 12175 12736 12910 12624 12775 12303 12027 11994 10518 11476 12910 13339 12713 12814 12972 13270 13244 12782 13323 12404 11194 9996 10354 10065 10200 9727 9504 9448 9383 9396 9347 9409 10282 11236 10518 10935 12224 12103 11709 11345 11748 11348 11141 11541 11338 11079 11020 11010 10754 10495 10702 10774 10692 11233 11351 11873 12125 12125 11541 11581 11778 12103 12582 12142 11961 11719 10944 10761 10718 11423 11558 11640 11650 10751 10662 11046 11233 10610 10068 10538 11190 11594 11804 11935 11952 11988 12181 12188 12060 12142 12145 12539 12263 11945 11883 12316 11640 11233 11171 11853 11072 11236 11486 11318 10570 10971 11381 12234 12926 12532 11971 12335 11564 11525 11669 11328 11167 10826 11538 11361 10925 10810 10702 10554 10259 10177 9763 9320 9199 9340 9114 9032 8914 8759 8658 8871 9327 9511 9458 10180 9839 10052 9081 8661 8510 8353 8375 8464 8435 8661 8126 7923 7805 7742 7723 7693 7673 7650 7637 7634 7611 7611 7611 7604 7601 7595 7588 7585 7585 7585 7575 7568 7572 7568 7565 7565 7562 7562 7552 7552 7559 7549 7552 7562 7542 7555 7549 7555 7552 7549 7555 7549 7542 7549 7552 7545 7552 7559 7562 7565 7572 7572 7582 7591 7595 7611 7621 7644 7660 7677 7703 7706 7723 7752 7857 7965 8143 8543 9186 9721 9317 9625 10797 11443 12644 12900 12066 13041 11771 10810 11502 10997 10705 11768 11479 10442 10009 9688 9511 9373 9084 9133 8992 8815 8687 8546 8448 8398 8336 8284 8379 8579 8818 8920 9101 9245 9064 8792 8684 8510 8497 8326 8313 8572 8572 8097 8188 8421 8490 8651 8786 9133 9625 10006 10137 10311 10318 10167 10308 10639 10905 11351 11722 11131 10278 9708 9465 8487 8684 8412 7644 7253 7060 6889 6742 6624 6519 6446 6397 6302 6240 6220 6220 6099 6023 6108 6171 6138 6118 6233 6338 6269 6062 6108 6049 5941 5843 5787 5744 5738 5692 5583 5488 5465 5482 5406 5446 5472 5423 5482 5603 5633 5649 5646 5626 5561 5173 5593 5521 5528 5511 5541 5616 5603 5498 5449 5413 5334 5374 5331 5275 5482 5459 5410 5344 5278 5203 5160 5085 5042 5003 4983 5000 5065 5062 4993 4937 4845 4839 4878 4858 4832 4796 4776 4835 4862 4812 4753 4757 4760 4750 4780 4776 4747 4727 4704 4708 4694 4639 4622 4603 4586 4570 4563 4560 4625 4688 4658 4635 4622 4603 4583 4563 4543 4534 4520 4494 4484 4461 4435 4409 4376 4383 4356 4353 4347 4340 4330 4304 4288 4317 4320 4288 4307 4340 4386 4379 4350 4317 4294 4288 4281 4274 4301 4330 4337 4333 4324 4327 4304 4288 4271 4324 4324 4320 4340 4314 4363 4356 4389 4393 4373 4425 4429 4484 4478 4465 4402 4340 4294 4278 4222 4186 4173 4176 4150 4130 4107 4084 4091 4071 4015 4061 4061 4071 4087 4114 4127 4179 4232 4202 4160 4140 4130 4127 4127 4081 4068 4035 4015 4032 4028 4081 4087 4117 4127 4114 4110 4120 4028 3989 4061 4087 4078 4101 4146 4215 4169 4110 4074 4038 4009 3973 3937 4019 3959 3920 3992 4019 4058 4101 4130 4124 4081 4058 4009 4035 4078 4038 4022 4035 4094 4127 4078 4058 4035 4028 4055 4074 4022 3996 3996 3953 3927 3904 3891 3854 3897 3877 3900 3923 3923 3940 3979 3933 3887 3884 3940 3920 3858 3805 3825 3828 3874 3877
12460 12217 12854 12122 11870 12286 13241 12746 12490 11833 11190 11194 12112 12276 11896 11492 11830 11318 11630 12703 12690 12191 12801 12257 12808 12509 11643 10600 12388 12027 13044 13169 13687 12831 12398 12050 12375 11128 10193 10065 9708 9658 9662 9750 10259 10334 10626 10505 10095 10547 10226 10898 11230 11417 11692 12444 11938 11945 11414 11397 11112 11164 11430 11135 10859 10839 10935 10711 10265 10429 10682 10423 10764 11040 12020 12112 12132 11719 11368 12037 12444 12670 12516 12388 11725 11272 10593 10557 10987 11502 10990 11817 11259 10685 10433 10669 10531 9885 10882 11164 11492 11778 11709 11860 11791 11683 11617 11450 11437 11673 12014 12598 12339 11965 11768 11463 11246 11751 11965 11099 11312 12001 11676 10866 11085 11699 12539 12811 12362 12125 11850 11673 11387 11043 11115 11112 10593 11279 11591 11391 10902 10341 10521 10278 9904 9570 9324 9422 9206 9514 9819 9783 9393 8809 8595 8953 9130 9458 9852 9662 9537 9002 8753 8500 8612 8336 8435 8418 8146 8149 7903 7795 7749 7716 7687 7667 7654 7644 7624 7614 7621 7611 7608 7608 7595 7601 7591 7588 7585 7582 7572 7575 7568 7568 7568 7565 7555 7552 7552 7552 7549 7555 7549 7555 7552 7559 7549 7549 7545 7545 7549 7549 7549 7549 7545 7552 7559 7559 7552 7572 7568 7582 7591 7598 7608 7624 7637 7660 7670 7677 7700 7706 7736 7759 7834 7995 8267 8763 8828 9491 10511 10938 11689 11420 12795 12929 12116 12411 11797 10262 10928 10442 10961 11666 10984 10396 9799 9648 9475 9225 9097 9019 8848 8615 8543 8494 8471 8415 8323 8297 8605 8710 8874 9055 9094 8946 8805 8618 8398 8438 8435 8175 8316 8251 8113 7946 8221 8297 8346 8569 8740 8950 9261 9694 10157 10124 10003 10544 10797 11122 11315 12109 11627 11286 10367 9648 9330 9117 8405 7814 7585 7089 6886 6768 6765 6541 6446 6387 6299 6256 6250 6177 6181 6184 6227 6236 6269 6223 6253 6148 6135 6236 6010 6066 6072 5885 5800 5744 5734 5711 5679 5593 5475 5413 5423 5423 5439 5485 5515 5620 5633 5662 5666 5616 5603 5167 5616 5524 5295 5531 5561 5616 5623 5511 5433 5387 5403 5423 5380 5383 5541 5508 5475 5387 5337 5249 5203 5137 5072 5016 5059 5104 5147 5108 4973 4908 4855 4898 4875 4908 4881 4803 4809 4862 4881 4822 4806 4812 4799 4790 4767 4753 4734 4701 4675 4668 4662 4645 4629 4609 4593 4573 4563 4566 4622 4678 4694 4668 4642 4625 4596 4583 4560 4550 4520 4498 4475 4448 4419 4386 4373 4373 4376 4347 4337 4324 4301 4311 4311 4330 4327 4294 4317 4337 4386 4379 4347 4317 4311 4297 4284 4291 4311 4337 4350 4347 4350 4333 4324 4284 4301 4317 4347 4353 4356 4350 4366 4432 4376 4432 4409 4438 4488 4488 4491 4409 4379 4370 4327 4297 4251 4206 4160 4133 4104 4091 4094 4051 4048 4005 4041 4124 4078 4114 4107 4117 4150 4196 4251 4196 4150 4124 4110 4101 4091 4091 4068 4019 4038 4055 4081 4061 4084 4133 4150 4137 4146 4117 4051 4009 4055 4071 4117 4071 4130 4215 4176 4140 4087 4071 4041 4005 3953 4035 4012 3937 3959 4015 4055 4074 4107 4146 4117 4081 4045 4048 4061 4097 4048 4051 4117 4160 4101 4058 4032 4055 4094 4058 4022 3986 3976 3973 3946 3933 3871 3877 3884 3923 3897 3933 3969 3966 3989 3923 3930 3914 3930 3874 3822 3812 3828 3894 3917 3910
12444 12896 12598 12017 12437 12979 12998 12831 12096 11295 11105 11633 12224 11528 11466 11272 11040 10711 11656 12214 12673 12204 11525 11758 12414 12509 11706 10482 12696 12522 13110 13015 12549 12942 12992 12230 10685 10643 11617 11906 10613 11387 11384 11059 10734 10875 11095 11013 10511 11437 11020 11427 11683 12293 12440 12368 11791 11489 11374 11240 11309 10902 11105 11092 10495 10938 10682 10564 10282 10269 10590 10396 10551 11082 12119 12106 11656 11082 11637 12263 12467 12650 12047 12037 11656 10977 10564 10311 10921 11568 11292 11181 11200 10744 10377 10213 10587 9885 10439 11640 11663 11706 11679 11706 11692 11640 11427 11358 11217 11371 11722 12309 12339 11991 11650 11377 11742 12125 12020 11230 11860 11994 11630 11020 11190 12201 12500 12385 12194 11781 11496 11617 11213 11076 10984 10646 10472 10977 11745 11056 10725 10410 10209 9895 9803 9963 9750 9461 9337 9563 9606 9799 9520 9366 8763 8707 8969 9530 9399 9566 9248 8848 8841 8950 9009 8461 8248 8316 8162 8054 7896 7814 7762 7723 7687 7667 7660 7637 7624 7621 7621 7614 7604 7608 7598 7601 7591 7588 7588 7585 7578 7582 7568 7572 7568 7562 7565 7559 7555 7552 7555 7552 7549 7552 7549 7552 7552 7549 7549 7545 7552 7542 7545 7542 7536 7555 7549 7555 7565 7559 7578 7585 7585 7604 7604 7624 7634 7654 7680 7683 7709 7729 7765 7752 7828 7949 8152 8451 8992 9232 10124 10193 10583 11614 12929 11837 10990 11830 10616 10980 10032 10223 10944 11706 10823 10269 10246 9678 9520 9324 9133 8943 8782 8592 8503 8389 8303 8251 8300 8379 8372 8651 8868 9019 9035 8756 8569 8645 8444 8316 8166 8185 8093 8080 7959 7805 8015 8188 8293 8320 8471 8697 8825 9117 9438 9229 9639 10456 10846 10938 11348 11991 11965 11604 11292 10715 9691 8973 8533 8293 7719 7208 6965 6811 6689 6601 6571 6496 6443 6410 6177 6092 6105 6105 6128 6154 6200 6200 6187 6066 6079 6076 5958 5925 5898 5846 5777 5731 5715 5646 5633 5541 5446 5472 5498 5492 5488 5495 5567 5659 5685 5685 5675 5643 5351 5524 5606 5603 5561 5574 5577 5606 5659 5580 5452 5413 5501 5465 5439 5505 5610 5551 5515 5449 5383 5331 5262 5127 5124 5072 5124 5127 5121 5013 4917 4872 5006 4960 4927 4885 4842 4842 4868 4858 4891 4865 4842 4819 4796 4780 4750 4724 4704 4671 4668 4652 4648 4632 4629 4606 4599 4583 4580 4589 4648 4717 4711 4701 4652 4632 4596 4586 4566 4553 4507 4478 4455 4425 4406 4393 4386 4379 4376 4370 4340 4314 4317 4343 4363 4360 4333 4317 4307 4337 4396 4386 4353 4320 4317 4311 4301 4314 4324 4340 4360 4360 4356 4353 4327 4297 4333 4340 4353 4363 4376 4383 4347 4445 4461 4445 4461 4475 4491 4471 4399 4416 4317 4330 4317 4281 4281 4225 4169 4143 4120 4127 4104 4078 4058 4045 4114 4097 4114 4110 4133 4143 4173 4225 4232 4183 4146 4124 4091 4084 4074 4058 4041 4038 4064 4101 4097 4107 4101 4124 4150 4150 4120 4143 4127 4002 4068 4068 4104 4153 4166 4199 4166 4114 4127 4097 4064 4019 3959 4028 4009 3956 3956 4028 4035 4074 4101 4114 4133 4110 4074 4051 4091 4114 4097 4071 4127 4189 4114 4071 4064 4104 4087 4041 4005 3979 3946 3933 3937 3897 3881 3923 3953 3956 3917 3910 3976 4002 4002 3982 3940 3953 3920 3861 3835 3845 3861 3904 3927 3927
12506 12634 12877 12368 12893 12746 12749 12483 11437 10839 11151 11771 12362 11975 11099 10557 11076 10816 11318 12198 12890 12155 12230 10846 10889 11256 10177 11240 12352 12834 12880 12522 12532 11732 11400 10702 11371 12454 13241 12650 11302 12201 12014 11656 11377 11400 11692 11771 10987 11614 11719 11660 12591 12919 12148 11860 11699 11394 11204 10846 10692 11122 11177 10790 10321 10255 10449 10206 10262 10187 10485 10600 10482 11049 11673 11604 10958 11427 11686 11788 11971 12529 12194 11955 11499 11066 10587 9947 10646 11551 11381 10702 11056 10823 10574 10154 10131 10314 11092 11410 11712 11381 11679 11571 11440 11381 11236 11148 11118 11108 11371 11883 12086 12519 12014 12221 12237 12148 11486 11643 11840 11916 11463 11204 11722 12401 12057 12020 11958 11715 11410 11164 11092 10731 10892 10797 10269 10557 11250 11568 10915 10974 10810 10498 10547 10639 10173 9983 9727 9783 9734 9540 9242 9461 9219 8635 8684 8854 9501 9557 8766 8635 8959 8877 8733 8375 8375 8179 8008 7942 7870 7814 7769 7723 7687 7664 7644 7637 7631 7624 7621 7621 7611 7611 7614 7601 7591 7588 7591 7585 7588 7578 7568 7578 7565 7559 7565 7562 7555 7549 7552 7555 7555 7549 7555 7542 7545 7549 7545 7549 7542 7545 7549 7545 7549 7545 7545 7549 7555 7568 7575 7578 7585 7601 7604 7618 7624 7644 7664 7683 7690 7703 7726 7769 7798 7893 7998 8097 8513 9376 9740 10108 11318 11427 12312 10984 10324 11059 10472 9957 10045 10675 11282 11886 11026 10757 10252 9845 9498 9189 9038 8976 8779 8599 8458 8264 8185 8133 8083 8254 8458 8503 8818 8641 8549 8589 8546 8349 8379 8244 8254 8100 7919 8008 7837 7703 7824 7906 8064 8051 8120 8169 8316 8526 8713 9055 10026 9727 9799 10351 10711 11112 11617 12211 11568 11230 10574 10009 9160 8083 7542 7362 7109 6938 6768 6673 6617 6541 6404 6318 6135 6095 6072 6036 6056 6066 6108 6105 6112 6131 5948 5912 5862 5866 5800 5770 5738 5695 5685 5646 5492 5662 5626 5672 5643 5679 5738 5702 5629 5728 5711 5705 5679 5666 5403 5272 5593 5587 5600 5452 5538 5593 5646 5554 5465 5488 5561 5531 5495 5597 5652 5623 5577 5475 5442 5360 5318 5249 5180 5104 5141 5055 5016 4967 4911 4950 5088 5019 4973 4927 4895 4868 4927 4888 4855 4858 4839 4819 4773 4753 4724 4714 4708 4685 4681 4668 4655 4635 4629 4619 4589 4586 4586 4619 4662 4717 4708 4711 4665 4645 4619 4609 4573 4530 4498 4471 4484 4468 4419 4409 4396 4396 4396 4389 4350 4320 4340 4379 4396 4366 4337 4327 4327 4347 4393 4393 4353 4337 4333 4324 4330 4330 4324 4353 4376 4383 4376 4370 4327 4324 4337 4366 4370 4396 4389 4442 4409 4406 4488 4507 4537 4511 4488 4370 4333 4320 4297 4281 4314 4268 4215 4199 4179 4146 4127 4124 4091 4064 4041 4032 4084 4127 4120 4110 4137 4169 4209 4261 4219 4169 4160 4124 4114 4094 4084 4051 4041 4071 4110 4117 4110 4124 4130 4133 4166 4150 4160 4137 4101 4087 4064 4097 4094 4130 4166 4212 4146 4094 4074 4058 4064 3973 3963 4045 4022 4022 3959 3976 4055 4078 4064 4091 4143 4133 4101 4084 4097 4127 4117 4094 4130 4186 4153 4124 4140 4140 4097 4048 4009 3992 3976 3914 3910 3904 3904 3907 3953 3999 3959 3963 3950 3999 4025 4002 3946 3963 3923 3877 3828 3871 3845 3891 3920 3937
13070 12772 12752 12513 13116 13018 12286 11669 10954 10436 11768 11699 12440 12125 10800 10534 11656 11502 11663 12470 12660 12542 11397 11246 11417 11082 9849 11594 12519 13126 12732 12270 11591 11512 11833 11154 12631 12352 13103 12362 11322 12355 12106 11961 11417 11938 12312 11404 11256 11781 12017 12821 12929 12857 12673 12057 11755 11679 11184 10708 10472 10990 11003 10337 10259 10580 10905 10511 10104 10134 10351 10623 10429 10882 11315 10754 11368 11538 11975 12119 12086 12447 11965 11578 11427 10793 10419 9711 10111 10511 11148 10278 10646 10433 10639 9990 10042 10561 11528 11417 11023 11312 11394 11601 11473 11394 11299 11115 11128 11017 11184 11220 11824 11961 12290 12267 11545 12096 12139 12270 12198 11833 11735 11476 11889 12401 12089 11830 11975 11781 11538 11279 11174 11036 10767 10688 10456 10328 10935 11660 11154 11427 11013 10748 10702 10613 10577 10068 10433 9740 9429 9580 9507 9173 9229 9379 8464 8733 9199 9291 8874 8743 8802 8940 8851 8720 8323 8110 8001 7923 7870 7811 7759 7716 7683 7667 7660 7637 7631 7631 7621 7614 7618 7604 7611 7601 7601 7598 7591 7582 7585 7582 7572 7575 7568 7568 7565 7562 7555 7555 7555 7555 7555 7549 7542 7545 7542 7552 7545 7545 7545 7549 7545 7545 7549 7545 7552 7559 7555 7559 7565 7572 7582 7591 7601 7614 7621 7637 7657 7687 7693 7716 7749 7778 7821 7890 7965 8080 8421 8877 9120 10042 10242 11085 11899 10672 9698 9993 9393 9885 11105 11948 12559 12135 11807 11000 10518 9990 9665 9179 8920 8736 8638 8612 8503 8326 8339 8211 8074 8061 8477 8585 8740 8526 8389 8336 8418 8297 8129 8143 8001 8179 7933 7933 7775 7641 7805 7782 7877 7923 7929 8008 8152 8349 8375 8963 9330 9773 10009 10009 9868 10885 11263 11814 11482 11269 10180 9425 8579 8057 7726 7444 7194 6965 6830 6722 6633 6453 6272 6194 6122 6062 6046 5994 5974 5997 6026 6033 6033 6079 6066 5889 5826 5777 5774 5725 5695 5688 5662 5649 5682 5656 5649 5669 5639 5695 5725 5741 5826 5813 5738 5659 5636 5528 5400 5597 5606 5606 5606 5590 5557 5583 5656 5574 5531 5524 5626 5521 5442 5679 5702 5652 5616 5574 5498 5410 5370 5301 5239 5150 5078 5019 4967 4940 4931 5006 5144 5085 5019 4970 4927 4908 4911 4881 4842 4832 4806 4793 4780 4753 4747 4724 4708 4681 4678 4662 4648 4632 4609 4596 4596 4593 4612 4648 4658 4698 4681 4665 4655 4632 4619 4599 4566 4534 4527 4507 4488 4455 4419 4412 4406 4396 4399 4396 4356 4343 4360 4402 4402 4363 4333 4340 4330 4353 4389 4396 4356 4356 4343 4330 4337 4347 4333 4353 4383 4396 4396 4363 4363 4360 4317 4383 4409 4412 4393 4455 4471 4406 4465 4511 4530 4481 4419 4353 4294 4278 4294 4251 4281 4284 4215 4176 4160 4133 4120 4101 4140 4137 4028 4084 4117 4140 4143 4127 4130 4146 4183 4225 4179 4173 4156 4127 4094 4071 4064 4081 4051 4071 4130 4130 4133 4166 4166 4153 4156 4160 4160 4127 4074 4074 4035 4114 4094 4094 4146 4173 4140 4104 4068 4071 3996 4051 4002 4012 4064 4022 4045 3976 4002 4019 4051 4087 4127 4173 4153 4101 4104 4133 4189 4153 4163 4179 4150 4127 4101 4097 4087 4058 4019 3979 3953 3937 3930 3966 3946 3907 3914 3973 4002 3992 3979 4002 4048 4005 3996 3950 3907 3854 3854 3887 3871 3887 3943 3920
12011 12293 13264 12801 12890 12477 11627 10711 11085 10321 11430 12463 12125 11525 10541 11066 11922 11742 11679 12719 11840 11463 11315 11958 11830 10839 9809 11046 12335 12732 13005 12673 12316 12769 12063 11548 12555 12706 13136 12047 11863 12746 12578 11804 12030 12798 11998 12093 11584 11942 12372 12998 12457 12634 12598 12214 11961 11978 11414 10754 10337 10423 10255 10377 11040 11010 10964 10725 10229 10078 10196 10400 10360 10613 10744 11532 11338 11522 11794 12030 12398 12155 11820 11525 11328 11738 11597 10426 9488 10072 10643 9940 10393 10764 10442 9425 9478 10659 10928 11023 10859 10935 10892 11299 11358 11433 11325 11217 11056 10518 10895 11207 11945 11564 11617 12198 11351 11361 12201 12020 12089 12214 11797 11604 12253 11886 12011 11515 11886 11564 11558 11223 11135 11135 10682 11240 10731 10134 10600 11010 10839 10849 10892 10623 10459 10085 9855 9862 9553 9537 9255 9557 10104 9757 9645 9255 9101 8402 8615 9274 8812 8379 8658 8723 8723 8740 8307 8133 7959 7890 7831 7778 7742 7719 7693 7670 7650 7641 7634 7631 7624 7618 7614 7618 7614 7604 7604 7595 7595 7598 7585 7578 7575 7572 7568 7568 7559 7562 7562 7562 7565 7555 7549 7542 7542 7552 7545 7552 7545 7545 7545 7542 7542 7536 7545 7552 7545 7549 7549 7568 7562 7575 7582 7591 7598 7614 7618 7637 7654 7667 7683 7709 7729 7755 7798 7857 7942 8041 8126 8438 9448 9455 9931 10639 10265 9944 9327 9475 10426 10734 10741 11981 12260 11624 11289 10820 10475 10131 9517 9209 9225 9012 8759 8641 8589 8421 8293 8044 7946 7956 8015 8471 8671 8802 8500 8362 8330 8215 8149 8064 8015 7860 7857 7919 7772 7598 7637 7700 7732 7896 7791 7847 7929 8156 8251 8750 9015 9740 9507 9317 10114 10269 11082 11414 11433 10095 9429 9045 8956 8543 7824 7391 7168 7024 6873 6650 6489 6315 6236 6171 6108 6069 6023 5977 5944 5925 5958 5964 5987 6036 6069 6023 5967 5797 5741 5711 5669 5662 5692 5511 5675 5695 5698 5695 5666 5711 5728 5787 5833 5875 5902 5859 5718 5380 5613 5606 5623 5639 5662 5629 5597 5600 5629 5652 5620 5583 5534 5472 5518 5751 5751 5728 5672 5583 5551 5465 5423 5360 5285 5196 5114 5072 5016 4980 4970 4977 5062 5052 5006 5022 4977 4931 4891 4868 4845 4839 4812 4793 4770 4747 4730 4711 4694 4668 4658 4635 4629 4612 4622 4609 4596 4616 4648 4662 4678 4688 4665 4642 4635 4622 4619 4576 4560 4540 4527 4511 4478 4458 4432 4429 4412 4399 4373 4376 4350 4356 4399 4429 4396 4370 4350 4340 4360 4376 4386 4396 4360 4373 4360 4356 4373 4363 4366 4376 4386 4409 4393 4376 4386 4373 4337 4356 4396 4438 4458 4465 4507 4491 4452 4517 4514 4504 4379 4337 4304 4271 4225 4238 4245 4248 4202 4179 4169 4143 4150 4143 4133 4107 4051 4097 4104 4146 4143 4140 4143 4150 4150 4160 4160 4160 4130 4110 4104 4120 4120 4058 4114 4064 4091 4107 4146 4169 4166 4173 4166 4169 4133 4084 4156 4068 4097 4133 4137 4156 4179 4189 4166 4133 4097 4048 4101 4114 3996 4035 4084 4038 4078 4022 4025 4051 4045 4068 4107 4150 4192 4140 4101 4140 4199 4225 4179 4124 4104 4094 4074 4051 4038 4025 4009 3976 3943 3927 3937 4002 3973 3907 3966 3979 3992 4035 4002 4038 4058 4038 3973 3923 3881 3877 3868 3933 3914 3910 3969 3946
10961 11368 12582 12896 12729 12519 12454 12280 10974 10364 11624 11748 12043 11230 10137 11046 11902 12355 11975 12896 12142 12332 12401 12339 11509 9914 10032 10872 10908 11414 12883 13028 12644 12335 11479 12181 13215 13789 12539 12014 12089 12979 12772 12270 12831 12473 12887 12440 11847 12066 13031 12604 12404 12043 12185 11919 11653 11893 11220 10593 10285 10291 10918 10889 11033 11046 10954 10941 10154 10075 10091 10173 10344 10374 10990 11594 11354 11374 11742 12329 12007 12073 11637 11433 11256 11571 11679 11167 9852 9189 9970 9842 9822 10282 9606 9967 9455 10938 10780 10610 10492 10452 10551 10643 11377 11414 11181 10862 10334 10898 10935 11131 11486 11341 11361 11473 11210 11161 12119 11715 11702 11958 12093 12129 11948 11902 11745 11601 11758 11663 11463 11371 11171 11046 10961 11158 10744 10396 10032 10334 10275 10423 10790 10446 10547 10383 9921 10013 9776 9478 9186 9110 9494 9776 9717 9356 9120 8707 8412 8379 8379 8480 8438 8697 8487 8471 8202 8015 7913 7847 7818 7778 7749 7726 7696 7670 7657 7644 7644 7627 7624 7621 7618 7608 7604 7611 7604 7601 7598 7588 7588 7595 7578 7575 7568 7568 7565 7565 7562 7562 7559 7559 7559 7549 7552 7539 7549 7545 7545 7542 7539 7542 7536 7549 7545 7542 7542 7542 7545 7552 7568 7572 7572 7588 7598 7608 7624 7641 7654 7667 7696 7703 7726 7749 7769 7828 7903 7942 8064 8198 8513 9078 9350 10305 9655 8930 9671 10065 11417 11105 11302 12467 11863 10958 10610 10698 10488 10380 9721 9603 9232 9251 8795 8628 8438 8382 8310 8182 7900 7837 7972 8149 8720 8825 8891 8713 8582 8425 8202 8146 7982 7883 7795 7759 7828 7631 7539 7572 7729 7752 7749 7739 7831 7919 8172 8310 8671 8789 9251 9071 9425 9819 10797 11148 10869 10200 9265 9028 8615 8625 7870 7457 7276 7080 6827 6620 6404 6272 6194 6131 6082 6033 6003 5961 5931 5912 5905 5935 5964 5990 5944 6046 5928 5807 5757 5734 5643 5629 5554 5603 5672 5692 5708 5731 5702 5711 5744 5813 5866 5898 5928 5889 5301 5898 5830 5767 5728 5761 5810 5695 5656 5646 5669 5685 5649 5600 5574 5518 5580 5816 5797 5777 5718 5666 5593 5456 5387 5410 5255 5127 5065 5059 5065 5029 4980 5059 5055 5055 5049 5009 4980 4967 4924 4898 4878 4872 4835 4819 4783 4744 4727 4714 4698 4681 4655 4648 4629 4632 4603 4658 4642 4645 4658 4681 4694 4694 4668 4645 4609 4599 4606 4576 4540 4511 4491 4468 4455 4445 4429 4412 4396 4379 4379 4370 4383 4379 4458 4445 4409 4360 4360 4347 4376 4416 4425 4399 4376 4376 4376 4386 4389 4383 4376 4393 4409 4422 4422 4396 4399 4379 4353 4393 4416 4458 4498 4455 4498 4517 4465 4514 4534 4488 4422 4347 4340 4304 4245 4215 4199 4225 4202 4183 4176 4169 4176 4137 4124 4038 4038 4097 4101 4094 4146 4150 4156 4163 4156 4153 4153 4156 4153 4124 4124 4120 4104 4061 4133 4081 4107 4133 4140 4173 4186 4189 4166 4153 4133 4146 4130 4097 4041 4124 4153 4166 4176 4199 4156 4127 4120 4094 4130 4061 4028 4097 4104 4071 4094 4055 4015 4081 4051 4074 4101 4150 4206 4173 4127 4146 4189 4235 4169 4127 4091 4061 4055 4041 4012 4002 3989 3946 3953 3937 3927 3953 4032 3959 3950 4009 3996 4048 4041 4074 4055 3986 3950 3907 3927 3904 3884 3933 3966 3940 3979 3953
10209 10541 11358 12303 12578 12493 12155 11998 10846 10337 11302 11938 11797 10964 10032 11138 12014 13008 12509 12247 13303 12706 12204 12191 10492 9740 10656 11020 11561 11322 12529 13021 12447 11856 12358 12080 12408 13362 12582 12201 12165 13244 13234 13143 13471 13005 12801 12637 12457 12818 13257 12772 12040 11994 11617 11624 11469 11519 10777 10357 10295 10685 10967 11095 11269 11099 10958 10629 10351 10091 10052 10055 10288 10623 11013 11279 11384 11387 11558 11696 11564 11788 11929 11466 11374 11564 11371 10780 10593 10433 9412 9619 9534 9826 9484 9028 9484 10052 9924 10518 10308 10472 9865 10308 10741 11145 11318 10820 9681 10892 11167 11345 11450 11282 11250 11272 10892 11053 11473 11305 11404 11519 12191 12332 11965 11893 11492 11302 11404 11528 11456 11282 11125 10997 11059 10997 11158 10538 10442 10177 10127 9839 9809 9796 9468 9471 9209 9458 9353 9255 9635 9278 8992 8864 9550 9347 9311 9232 9048 8963 8631 8540 8238 8116 8123 8044 8313 7972 7906 7864 7824 7785 7752 7723 7700 7673 7660 7644 7641 7631 7631 7627 7624 7618 7614 7611 7601 7601 7601 7598 7578 7582 7582 7578 7575 7575 7572 7575 7565 7559 7562 7559 7565 7559 7542 7549 7552 7539 7545 7545 7542 7542 7552 7542 7542 7545 7536 7536 7545 7552 7555 7562 7562 7582 7598 7611 7621 7647 7660 7664 7693 7703 7726 7736 7765 7818 7860 7926 7998 8106 8238 8454 8877 9242 8546 9471 10167 11233 11916 12237 11699 12342 11558 12142 11440 10465 10141 10045 9796 9448 9222 9078 8661 8625 8392 8280 8195 8120 7854 7795 7801 7942 8182 8435 8920 8923 8822 8717 8182 7919 7893 7778 7785 7700 7700 7673 7539 7473 7585 7611 7680 7604 7824 7785 8018 8054 8221 8359 8763 9580 10344 10541 10787 10564 10731 9783 8861 8366 8585 8398 7742 7378 7204 7047 6840 6637 6453 6263 6181 6102 6053 6010 5967 5935 5902 5889 5862 5889 5938 5898 5830 5938 6000 5918 5711 5669 5574 5597 5620 5577 5620 5675 5715 5770 5754 5751 5790 5826 5856 5882 5908 5731 5511 5951 5948 5964 5918 5912 5912 5889 5849 5787 5718 5718 5685 5649 5593 5564 5666 5839 5856 5793 5685 5672 5616 5570 5518 5459 5383 5314 5242 5177 5111 5078 5042 5049 5082 5085 5062 5055 5029 4993 4924 4911 4895 4885 4855 4832 4803 4783 4750 4737 4698 4678 4662 4648 4639 4625 4681 4688 4665 4665 4658 4678 4704 4688 4655 4619 4606 4576 4550 4527 4504 4488 4488 4461 4448 4442 4429 4412 4402 4406 4402 4412 4389 4409 4461 4442 4396 4373 4360 4363 4386 4429 4432 4406 4393 4399 4399 4416 4422 4402 4389 4409 4435 4429 4438 4425 4425 4409 4366 4406 4448 4511 4514 4511 4478 4534 4524 4543 4540 4478 4393 4330 4278 4242 4232 4189 4176 4183 4173 4169 4176 4183 4186 4179 4153 4055 4140 4169 4130 4120 4153 4173 4179 4169 4192 4169 4169 4166 4153 4133 4143 4127 4064 4127 4166 4110 4130 4169 4173 4186 4209 4192 4179 4169 4160 4150 4110 4064 4107 4127 4189 4222 4222 4183 4137 4087 4120 4146 4071 4012 4087 4107 4137 4101 4094 4019 4022 4110 4071 4068 4101 4140 4202 4232 4196 4163 4219 4238 4166 4140 4133 4081 4045 4022 4025 3979 3963 3989 4019 3963 3956 3969 4045 3996 3946 3982 4028 4045 4087 4097 4025 3979 3973 3937 3943 3956 3917 3969 3979 3982 4009 3950
